# 3D point list with one line of data per point:
#   POINT3D_ID, X, Y, Z, R, G, B, ERROR, TRACK[]
17933 4.433639921867986 -3.7502686533702017 21.31191989538631 255 255 255 1.0 22 1687 23 777
17934 5.779897164539121 0.7005188153820313 19.544028077501274 255 255 255 1.0 22 1688 23 778
17935 2.4189517657063218 -2.8099900211064877 18.924369181360255 255 255 255 1.0 22 1689 23 779
17936 -1.349304032180765 0.8746691401182528 16.38881025200852 255 255 255 1.0 22 1690 23 780
17937 6.335247551128813 -3.0997036170993555 17.64978554307411 255 255 255 1.0 22 1691 23 781 24 390 25 202 26 113
17938 7.390740989439172 3.0154151523608137 14.707876677901385 255 255 255 1.0 22 1692 23 782
17939 4.938618431063597 0.9878091032214273 19.046579180824676 255 255 255 1.0 22 1693 23 783
17940 1.856771180216465 -1.2253043568774646 18.259675943166087 255 255 255 1.0 22 1694 23 784
17941 -1.3733232718494237 -4.73650136196179 18.92869813226402 255 255 255 1.0 22 1695 23 785
17942 2.781545249889468 2.622629116966647 15.87692443691254 255 255 255 1.0 22 1696 23 786
17943 2.252914729841215 -1.3026314824441978 16.339544315883916 255 255 255 1.0 22 1697 23 787 24 391
17944 4.327555932584929 -2.7936502231940956 11.457887054197496 255 255 255 1.0 22 1698 23 788 24 392
17945 -1.3880942038255455 1.3112867178027159 16.214047066959946 255 255 255 1.0 22 1699 23 789
17946 -0.23912993381538883 -2.5924492756791158 15.427314691026258 255 255 255 1.0 22 1700 23 790 24 393
17947 0.5240849921829096 1.1419358184345048 14.532362544202417 255 255 255 1.0 22 1701 23 791 24 394 25 203
17948 2.348417005483935 -3.063297178366286 18.45238319027945 255 255 255 1.0 22 1702 23 792
17949 2.5753605208890487 2.900690686231354 11.831118933093489 255 255 255 1.0 22 1703 23 793
17950 0.01657913429465949 0.30333689964602734 13.64304897744836 255 255 255 1.0 22 1704 23 794
17951 7.145786967184606 2.6370756322066855 15.136827191540004 255 255 255 1.0 22 1705 23 795 24 395
17952 6.213189300423873 2.4522677895613976 14.33454273087671 255 255 255 1.0 22 1706 23 796 24 396
17953 3.2923629418063856 -3.030211493729961 18.93073991674648 255 255 255 1.0 22 1707 23 797
17954 5.564214963969841 2.1272395379835 8.864650822158957 255 255 255 1.0 22 1708 23 798
17955 1.7572493773295847 -4.792745575101897 20.21921790573946 255 255 255 1.0 22 1709 23 799
17956 2.6925466866434036 -0.308314245363816 14.777994409127487 255 255 255 1.0 22 1710 23 800 24 397 25 204 26 114
17957 5.001707141925114 -2.6902298960099404 19.919580089890793 255 255 255 1.0 22 1711 23 801
17958 5.520463107345268 1.097047890129828 17.27304426626395 255 255 255 1.0 22 1712 23 802 24 398
17959 2.61702178679761 -2.6649824289356836 18.928763531399944 255 255 255 1.0 22 1713 23 803
17960 6.189261761656214 0.9489842780390795 19.61463468199425 255 255 255 1.0 22 1714 23 804
17961 -1.3887323211617693 -5.209657344076161 18.38046548896446 255 255 255 1.0 22 1715 23 805
17962 6.133375320303836 -4.119286399848841 18.089734760544836 255 255 255 1.0 22 1716 23 806 24 399
17963 6.492210028753968 2.9165167400793104 14.705633220637372 255 255 255 1.0 22 1717 23 807
17964 2.0184370939510763 -0.6625907807397855 16.153427309303016 255 255 255 1.0 22 1718 22 1719 23 808 24 400
17965 6.362764911914519 0.5669749937802953 16.722626615226396 255 255 255 1.0 22 1720 23 809 24 401 25 205 26 115 27 72
17966 3.738544689492556 -1.1568191641612302 19.118622290627687 255 255 255 1.0 22 1721 23 810
17967 6.667274733060085 1.9787818346503947 17.487066956817994 255 255 255 1.0 22 1722 23 811 24 402
17968 2.531506774483632 2.5592477426869795 10.491910230468818 255 255 255 1.0 22 1723 23 812 24 403 25 206
17969 2.2183921054354174 -0.3710760229318227 13.001243987418324 255 255 255 1.0 22 1724 22 1725 23 813
17970 0.8364241606661877 -4.654542543492927 19.87330726384451 255 255 255 1.0 22 1726 23 814
17971 -1.1411374040062616 1.0283455678165647 16.361320811166483 255 255 255 1.0 22 1727 23 815
17972 -0.5986044910982835 -4.670729196017723 16.036244373144847 255 255 255 1.0 22 1728 23 816 24 404 25 207 26 116 27 73
17973 3.864830427912607 -2.6111207741591906 17.36861233708921 255 255 255 1.0 22 1729 23 817 24 405
17974 6.852121422102803 3.0461387381261575 13.902649001717341 255 255 255 1.0 22 1730 23 818
17975 9.785056222429699 -0.5143372276226016 6.0821383193582825 255 255 255 1.0 22 1731 23 819
17976 0.9994196966466377 -2.6350376287528645 18.062460042326993 255 255 255 1.0 22 1732 23 820
17977 3.3584965089250645 2.94375282330826 12.19924882991885 255 255 255 1.0 22 1733 23 821
17978 5.563652088047005 -3.989402605064705 18.251838838864188 255 255 255 1.0 22 1734 23 822 24 406 25 208 26 117 27 74
17979 3.8231513279388922 -1.2883526433147678 19.18721530807646 255 255 255 1.0 22 1735 23 823
17980 10.025319715216906 -1.280152659627435 6.812676813920325 255 255 255 1.0 22 1736 22 1737 23 824
17981 4.8417641908760345 1.8043484685155287 18.91919730101473 255 255 255 1.0 22 1738 23 825
17982 -2.482755703477559 -2.8930776699933873 16.745476187412226 255 255 255 1.0 22 1739 23 826
17983 7.14888285251221 1.5455272014404051 17.811635363063424 255 255 255 1.0 22 1740 23 827 24 407
17984 -0.92248546439126 -2.8093779450999037 15.154318634045637 255 255 255 1.0 22 1741 23 828 24 408
17985 -2.1783739346176096 0.04885727202604881 16.21546465996067 255 255 255 1.0 22 1742 23 829
17986 6.712242544320088 0.6013421556042149 17.882062661704826 255 255 255 1.0 22 1743 23 830 24 409
17987 0.7114473879605958 -1.3235065114091302 14.535042972192375 255 255 255 1.0 22 1744 22 1745 23 831
17988 2.855861731327318 -2.752750128021271 19.011601338702715 255 255 255 1.0 22 1746 23 832
17989 0.32061570282036445 -5.159972423571261 19.20553022543826 255 255 255 1.0 22 1747 23 833
17990 6.7771131972694105 2.689387416734853 20.887449345556004 255 255 255 1.0 22 1748 23 834
17991 4.172166945990119 -1.1611420186288661 12.90280705227207 255 255 255 1.0 22 1749 23 835
17992 -4.379268546678426 1.910168655450848 16.16326178656398 255 255 255 1.0 22 1750 23 836
17993 5.763982889501692 -1.033380159833974 14.492679722972264 255 255 255 1.0 22 1751 23 837 24 410
17994 0.7424797711959796 -4.632269703872071 19.643708688447308 255 255 255 1.0 22 1752 23 838
17995 0.7257112160772424 -4.788898629915383 16.36012759566706 255 255 255 1.0 22 1753 23 839 24 411 25 209 26 118
17996 2.331320790948993 -1.5264224973285054 18.63474570417168 255 255 255 1.0 22 1754 23 840
17997 6.5291714506757685 0.24462585075936258 16.261564303513868 255 255 255 1.0 22 1755 23 841 24 412 25 210 26 119
17998 3.081783967725129 -2.883921231680644 19.24248497183802 255 255 255 1.0 22 1756 23 842
17999 5.008140933058985 1.6314803818961767 19.075990495894874 255 255 255 1.0 22 1757 23 843
18000 10.287665749584237 -1.005968929971157 5.812308600590435 255 255 255 1.0 22 1758 23 844
18001 0.39322458719181214 -5.165713471571883 19.295943181898156 255 255 255 1.0 22 1759 23 845
18002 2.0568620652297747 -3.038567740797836 18.433834597994757 255 255 255 1.0 22 1760 23 846
18003 5.862535905761636 -3.1866913935465826 19.29072509245782 255 255 255 1.0 22 1761 23 847 24 413
18004 1.3457583957226307 1.885904059251009 17.36433422469838 255 255 255 1.0 22 1762 23 848
18005 -1.6882994278077812 -4.677398516099548 18.79595835646299 255 255 255 1.0 22 1763 23 849
18006 -0.354582724095145 -2.8363561602422456 14.233225901601475 255 255 255 1.0 22 1764 23 850 24 414 25 211 26 120 27 75 28 55
18007 0.23234210544252715 -2.820461118772135 17.9697112698487 255 255 255 1.0 22 1765 23 851
18008 3.341994806792082 -4.370401684323368 17.55308018965063 255 255 255 1.0 22 1766 23 852 24 415 25 212
18009 3.9377316746345374 -1.3656335341712675 19.315410674244532 255 255 255 1.0 22 1767 23 853
18010 -1.1763484874294203 1.5191174848817097 16.27512182685189 255 255 255 1.0 22 1768 23 854
18011 3.203448416481494 -1.392785476392264 18.93691831777195 255 255 255 1.0 22 1769 23 855
18012 5.498887755182885 2.273072144873219 17.061846633556996 255 255 255 1.0 22 1770 23 856 24 416
18013 3.6771374863676654 -4.856158917664941 21.233880163818792 255 255 255 1.0 22 1771 23 857
18014 4.967813413762504 3.021896016938321 12.952843952104216 255 255 255 1.0 22 1772 23 858
18015 0.2003834794473721 -1.5384954760640628 17.731908749639135 255 255 255 1.0 22 1773 23 859
18016 1.7820661997942184 2.578991213951771 13.829288488896184 255 255 255 1.0 22 1774 23 860
18017 6.972623993134779 2.8018566583745743 12.81322772294187 255 255 255 1.0 22 1775 23 861 24 417
18018 -0.329495045464676 -0.9241654146534771 13.944695326253903 255 255 255 1.0 22 1776 23 862 24 418 25 213
18019 4.8569133908654285 2.6983884274629775 14.891813977041393 255 255 255 1.0 22 1777 23 863
18020 0.7907696588559769 0.49784384647020313 15.10448644689236 255 255 255 1.0 22 1778 23 864
18021 6.371331354458943 -2.4263291227105848 19.150604243487642 255 255 255 1.0 22 1779 23 865 24 419 25 214 26 121 27 76 28 56 29 40 30 32 31 23
18022 -1.1077019401402848 1.7133470388747598 16.231693107817748 255 255 255 1.0 22 1780 23 866
18023 -0.9514518851249579 1.3585861459751372 16.42696068184829 255 255 255 1.0 22 1781 23 867
18024 -0.5425346093570235 -0.5763161811851489 17.14272319105931 255 255 255 1.0 22 1782 23 868
18025 4.6568478191545 0.8684026946815246 15.00601450399218 255 255 255 1.0 22 1783 23 869 24 420 25 215
18026 5.831019187863813 0.8904979434945991 19.553732425292324 255 255 255 1.0 22 1784 23 870
18027 3.9506722204196314 2.886044390100849 13.087467462054406 255 255 255 1.0 22 1785 23 871
18028 5.491728800228628 2.347584729821584 17.032061927089124 255 255 255 1.0 22 1786 23 872 24 421
18029 -2.0899676105175944 -2.8879166434173524 16.936329366761978 255 255 255 1.0 22 1787 23 873
18030 6.122395284452508 0.5280602438293673 17.595343808898722 255 255 255 1.0 22 1788 23 874 24 422
18031 5.749483738886033 3.0371537900873515 13.220366802999441 255 255 255 1.0 22 1789 23 875
18032 5.1333295032151165 2.1809781054938124 18.84532771997296 255 255 255 1.0 22 1790 23 876
18033 5.0566809480314765 1.7364301290249498 19.06000029559034 255 255 255 1.0 22 1791 23 877
18034 -1.1319747872525148 -2.329214336288111 14.992102147626515 255 255 255 1.0 22 1792 23 878 24 423
18035 7.256094380608113 1.875736497478027 17.762121396380657 255 255 255 1.0 22 1793 23 879 24 424
18036 -0.19390564590249376 -3.1790161490602955 17.350681859183958 255 255 255 1.0 22 1794 23 880
18037 0.8079210689655323 -3.1541447307371304 17.757233736291315 255 255 255 1.0 22 1795 23 881
18038 3.692623690558211 -2.6292438402496456 19.329199099020684 255 255 255 1.0 22 1796 23 882
18039 -1.5561756008770844 -3.079367254753134 17.1179300561104 255 255 255 1.0 22 1797 23 883
18040 3.0118985850911573 2.9390368355692353 12.080137991820253 255 255 255 1.0 22 1798 23 884
18041 -2.3560811852257912 -4.810884621908365 18.4556179495195 255 255 255 1.0 22 1799 23 885
18042 1.659773475687409 -1.34404225359534 18.279539921055942 255 255 255 1.0 22 1800 23 886
18043 4.506762156803929 -4.900177733695751 20.960731079388452 255 255 255 1.0 22 1801 23 887
18044 -1.6363344133240858 1.5791723164229647 16.075055926033144 255 255 255 1.0 22 1802 23 888
18045 6.352682126060618 0.7857726057116967 17.66589771315713 255 255 255 1.0 22 1803 23 889 24 425
18046 5.711341572368079 2.1158464488383166 16.679982098519005 255 255 255 1.0 22 1804 23 890 24 426 25 216
18047 8.145039774244328 -2.282211439876408 11.237113621674045 255 255 255 1.0 22 1805 23 891
18048 6.382160171595333 0.8417098037953887 17.679487393114158 255 255 255 1.0 22 1806 23 892 24 427
18049 3.3447376053202555 2.9200963764458168 12.107528626753275 255 255 255 1.0 22 1807 23 893
18050 6.834668213510347 2.9327849735744476 16.51764976390545 255 255 255 1.0 22 1808 23 894
18051 2.5886787477637476 -2.5525046918366803 15.747052968317478 255 255 255 1.0 22 1809 23 895 24 428 25 217
18052 0.4504533790562517 -4.402171253955592 15.524196221313915 255 255 255 1.0 22 1810 23 896 24 429
18053 -0.4997820057953118 -3.1983346474439966 17.18700763369432 255 255 255 1.0 22 1811 23 897
18054 7.202915177852857 3.353663335144548 16.592133845281747 255 255 255 1.0 22 1812 23 898
18055 -1.0461833949100678 -5.2039561504598755 18.59873417396189 255 255 255 1.0 22 1813 23 899
18056 -2.6106428491658287 -3.970611895086061 18.19294846278358 255 255 255 1.0 22 1814 23 900
18057 8.4746885251013 -0.9597907995462786 7.42482912617434 255 255 255 1.0 22 1815 23 901
18058 -2.34989426335304 -5.255679443049326 18.136007994595342 255 255 255 1.0 22 1816 23 902
18059 5.58490125530118 2.608892387240456 12.137770286765111 255 255 255 1.0 22 1817 23 903 24 430 25 218
18060 3.215615443221986 2.9376642849031533 12.136825339032496 255 255 255 1.0 22 1818 23 904
18061 1.7116265599388223 -5.027204136656402 19.836150916048094 255 255 255 1.0 22 1819 23 905
18062 -0.9265839587133053 -1.3385463840291303 14.942989750825852 255 255 255 1.0 22 1820 23 906 24 431
18063 5.488953576470487 2.7476979554535497 15.177630128480097 255 255 255 1.0 22 1821 23 907
18064 7.103981577524362 1.4164177300447922 17.893277473788153 255 255 255 1.0 22 1822 23 908 24 432
18065 4.635679926525066 -1.1006694684969038 16.88686398566329 255 255 255 1.0 22 1823 23 909 24 433 25 219
18066 0.4869904420678161 -1.302874013762668 15.491969629604057 255 255 255 1.0 22 1824 23 910 24 434
18067 4.54519140855864 -1.38944357757691 19.556898807875697 255 255 255 1.0 22 1825 23 911
18068 3.2223763859345587 -5.010681405015031 20.45148200398941 255 255 255 1.0 22 1826 23 912
18069 6.4268701431139466 0.7753834693564614 16.658722725631847 255 255 255 1.0 22 1827 23 913 24 435 25 220
18070 -0.6734939618876568 -2.9386650988642087 14.975542520364979 255 255 255 1.0 22 1828 23 914 24 436
18071 5.622873044202475 1.0624709128567178 17.276669028931167 255 255 255 1.0 22 1829 23 915 24 437
18072 6.463160755962985 1.0827714801845503 19.75415333369184 255 255 255 1.0 22 1830 23 916
18073 2.734405188615695 -4.930666141754591 20.234571220292157 255 255 255 1.0 22 1831 23 917
18074 0.16987813520884176 -2.9047963253812608 15.377346369677792 255 255 255 1.0 22 1832 23 918 24 438
18075 7.113499678772164 -0.8481828270933334 10.764562531581115 255 255 255 1.0 22 1833 23 919
18076 9.69824200111729 -1.160551490865847 6.287476765957445 255 255 255 1.0 22 1834 23 920
18077 0.00841291182074529 -4.204159547743855 15.79039951565002 255 255 255 1.0 22 1835 23 921 24 439 25 221 26 122 27 77 28 57
18078 2.6533187438111296 -2.419087474094411 18.70134217759496 255 255 255 1.0 22 1836 23 922
18079 6.812945826196078 2.900085182514696 20.894724137762733 255 255 255 1.0 22 1837 23 923
18080 -2.324793185661698 -3.8546483094165445 18.229236661955643 255 255 255 1.0 22 1838 23 924
18081 5.187646470518295 -2.911039694488153 19.687692518077135 255 255 255 1.0 22 1839 23 925
18082 -2.1438038186109165 -6.95419492387911 21.159824753248028 255 255 255 1.0 22 1840 23 926
18083 1.0541231417867098 -1.5062369514155776 18.142997720490364 255 255 255 1.0 22 1841 23 927
18084 -3.176480775559081 -2.9380194127564554 16.484538881048973 255 255 255 1.0 22 1842 23 928
18085 3.420188248985482 -0.3986830039757547 18.809185559742964 255 255 255 1.0 22 1843 23 929
18086 6.034221833409104 -3.7735877274068135 18.33809674938815 255 255 255 1.0 22 1844 23 930 24 440
18087 3.5991691258838783 1.0348262244554038 16.736882728761795 255 255 255 1.0 22 1845 23 931
18088 -0.7139777487066928 -1.3734456976573077 14.525857028257196 255 255 255 1.0 22 1846 23 932 24 441 25 222
18089 2.343812487824845 -3.7285218424365643 15.593131615714128 255 255 255 1.0 22 1847 23 933 24 442 25 223 26 123 27 78 27 79 28 58
18090 6.542361690113724 2.0045512209059466 19.584000257850974 255 255 255 1.0 22 1848 23 934
18091 4.718743377794789 -4.203796847751582 21.544752353355918 255 255 255 1.0 22 1849 23 935
18092 6.7459871045650095 2.9312833152735673 20.79162224948823 255 255 255 1.0 22 1850 23 936
18093 5.465213059180304 -1.0526028690884892 13.433381590767812 255 255 255 1.0 22 1851 23 937
18094 9.03484871707008 -0.9877585290014514 7.660659304325428 255 255 255 1.0 22 1852 23 938
18095 0.16180904720156086 -4.352174214341253 14.863715385330462 255 255 255 1.0 22 1853 23 939 24 443 25 224 26 124
18096 -0.13335506257805926 2.633008577078274 13.421367856989452 255 255 255 1.0 22 1854 23 940
18097 4.596894710933961 2.725199322717773 15.203235983607458 255 255 255 1.0 22 1855 23 941
18098 1.7402098434685451 2.549174197719028 13.91037780109727 255 255 255 1.0 22 1856 23 942
18099 1.0815764127517387 -0.8380523672219045 17.69977348725214 255 255 255 1.0 22 1857 23 943
18100 7.172765398203309 2.746915435293069 13.154706660055414 255 255 255 1.0 22 1858 23 944 24 444
18101 4.3645533081618995 2.7728417944273245 13.979986794034733 255 255 255 1.0 22 1859 23 945
18102 7.279245018309569 2.477557708473258 12.855812541273108 255 255 255 1.0 22 1860 23 946 24 445 25 225 26 125 27 80
18103 6.362250887942192 -2.648153633085837 18.10135765717294 255 255 255 1.0 22 1861 23 947 24 446
18104 5.163513875133546 -1.0827320717589872 17.083759826206787 255 255 255 1.0 22 1862 23 948 24 447 25 226
18105 -1.1568948634019176 -4.736644666356178 19.038909115511878 255 255 255 1.0 22 1863 23 949
18106 0.8109365545758135 -0.3430543941649692 13.603528691324964 255 255 255 1.0 22 1864 23 950 24 448 25 227
18107 0.5194895100305938 -1.5609475830432937 15.647136633040432 255 255 255 1.0 22 1865 23 951 24 449
18108 -0.3353465503728958 -1.4895421878769943 17.36574196381366 255 255 255 1.0 22 1866 23 952
18109 -2.2316654562299 -1.5655098514177568 16.555663000288682 255 255 255 1.0 22 1867 23 953
18110 5.833979514928198 0.5147212534768655 19.632191461178042 255 255 255 1.0 22 1868 23 954
18111 -0.506892469211968 -1.1802402010683959 13.792509908450914 255 255 255 1.0 22 1869 23 955 24 450 25 228
18112 -0.5841393655640287 -2.703737245387237 17.523200150189382 255 255 255 1.0 22 1870 23 956
18113 -0.49746974543525074 -5.132236294602236 18.903736663424354 255 255 255 1.0 22 1871 23 957
18114 4.22133565460254 2.9386105320474796 12.956142740233524 255 255 255 1.0 22 1872 23 958
18115 3.1331829755972307 -3.8208543960884693 16.750648038052564 255 255 255 1.0 22 1873 23 959
18116 2.3657000119778906 -2.581435170554281 14.77124524280029 255 255 255 1.0 22 1874 23 960 24 451 25 229 26 126
18117 3.0983591036469136 2.604151140430318 14.503465305071982 255 255 255 1.0 22 1875 23 961
18118 3.3677659221306184 2.875834520185367 12.604638665858255 255 255 255 1.0 22 1876 23 962
18119 5.261092761184542 0.5727232874243108 19.348382756528963 255 255 255 1.0 22 1877 23 963
18120 5.59948226249497 2.39137212628692 17.008177391141217 255 255 255 1.0 22 1878 23 964 24 452
18121 0.6320216916549747 -0.5752482047377233 14.72958854096845 255 255 255 1.0 22 1879 22 1880 23 965
18122 1.45296003773156 1.958443191689478 17.164696520536992 255 255 255 1.0 22 1881 23 966
18123 5.941633170163563 -3.8352278436044043 18.857324564399704 255 255 255 1.0 22 1882 23 967 24 453 25 230
18124 3.933258904458208 -1.3324763639703858 19.324465321613907 255 255 255 1.0 22 1883 23 968
18125 7.123883030321242 2.6464614689716837 12.983554428428121 255 255 255 1.0 22 1884 23 969 24 454 25 231
18126 3.2940045983145683 2.728234874146218 14.237582971924256 255 255 255 1.0 22 1885 23 970
18127 4.869661038571282 2.956815272620433 13.28133723815461 255 255 255 1.0 22 1886 23 971
18128 5.179921193839855 2.0489945206530527 18.97184645921159 255 255 255 1.0 22 1887 23 972
18129 6.940723631313503 0.8090596674470751 17.89022825737439 255 255 255 1.0 22 1888 23 973 24 455
18130 -2.6183589020305256 -3.3168901804350988 16.37858554112157 255 255 255 1.0 22 1889 23 974
18131 2.8402363128161623 2.648878666232879 13.855035173105133 255 255 255 1.0 22 1890 23 975
18132 6.052923648533126 0.24147639555615763 17.710415719681606 255 255 255 1.0 22 1891 23 976 24 456
18133 0.013154857918950102 1.7175626166277305 14.616101233770188 255 255 255 1.0 22 1892 23 977 24 457
18134 6.445946527988584 1.1323714280352628 17.72091662576998 255 255 255 1.0 22 1893 23 978 24 458
18135 -2.6956131407195065 -5.377763952296364 17.990303030894474 255 255 255 1.0 22 1894 23 979
18136 6.204998192763329 -2.9705130084383247 17.006850059497484 255 255 255 1.0 22 1895 23 980 24 459 25 232
18137 -3.1980338629426472 -3.2798656586167594 16.356565283292564 255 255 255 1.0 22 1896 23 981
18138 4.632869101678017 2.953442492155789 13.154065521576939 255 255 255 1.0 22 1897 22 1898 23 982
18139 6.919580866883349 -3.088314223418674 20.487166928223136 255 255 255 1.0 22 1899 23 983
18140 6.880904288709477 0.8688253200844287 17.85736897152406 255 255 255 1.0 22 1900 23 984 24 460
18141 0.20080898234640152 -0.25391612086663506 16.56793725732425 255 255 255 1.0 22 1901 23 985
18142 -1.8674403649967353 -0.3232380840958073 16.437230074682468 255 255 255 1.0 22 1902 23 986
18143 6.728689552473396 0.8246612862017895 17.816652022883073 255 255 255 1.0 22 1903 23 987 24 461
18144 3.298734707281629 2.844742405961606 12.877137649285451 255 255 255 1.0 22 1904 23 988
18145 3.8220557359157574 2.6393487885823435 14.861555330074946 255 255 255 1.0 22 1905 23 989
18146 6.599213303838965 2.96418245266664 14.39701633042467 255 255 255 1.0 22 1906 23 990
18147 2.0601692042923565 1.1620464018397945 16.135821416745706 255 255 255 1.0 22 1907 23 991
18148 4.841033278850018 0.5833492345404045 15.2532965751985 255 255 255 1.0 22 1908 23 992 24 462
18149 2.2532880264501514 -0.8853826667229039 16.083946412425234 255 255 255 1.0 22 1909 23 993 24 463
18150 10.315781170072807 -0.43989798938718716 5.125635382910151 255 255 255 1.0 22 1910 23 994
18151 11.50621376521503 -0.4760160162178949 4.127445483544113 255 255 255 1.0 22 1911 23 995
18152 1.679231907846546 -3.901897519989412 16.091153129138025 255 255 255 1.0 22 1912 23 996
18153 3.703263559738256 2.955645550019591 12.310455458331369 255 255 255 1.0 22 1913 23 997
18154 8.444598523554442 -0.5708302973226567 7.3363957718870925 255 255 255 1.0 22 1914 23 998
18155 0.3364920371063262 2.657642062145484 13.670992615297074 255 255 255 1.0 22 1915 23 999
18156 0.9794659959151335 -3.142004562031974 17.9398381794425 255 255 255 1.0 22 1916 23 1000
18157 -3.163717519933479 -6.809573969933957 21.853311289397432 255 255 255 1.0 22 1917 23 1001
18158 5.542270048769693 2.897117108231537 14.19373736976415 255 255 255 1.0 22 1918 23 1002
18159 -1.1324811449966095 -4.7470964597193115 19.146822514104723 255 255 255 1.0 22 1919 23 1003
18160 0.03912558233498735 -3.160968206793763 17.49927854502341 255 255 255 1.0 22 1920 23 1004
18161 6.741546628521917 2.76776972613883 20.786105243663197 255 255 255 1.0 22 1921 23 1005
18162 -3.099124569989196 -3.339628067180459 16.18481625675738 255 255 255 1.0 22 1922 23 1006
18163 9.114752276427604 -0.9402849649620862 7.702473206727522 255 255 255 1.0 22 1923 23 1007
18164 4.649860403977099 -1.4429270579903473 19.49541883518516 255 255 255 1.0 22 1924 23 1008
18165 2.286304759623746 -4.765945530896445 20.43585208653014 255 255 255 1.0 22 1925 23 1009
18166 4.284790709004256 -2.421697830486954 17.464932623333524 255 255 255 1.0 22 1926 23 1010 24 464
18167 3.516858591353333 -2.967980265100586 19.017248489224386 255 255 255 1.0 22 1927 23 1011
18168 0.23632743817309085 -1.5106490616251027 17.623439423229314 255 255 255 1.0 22 1928 23 1012
18169 4.63055169670002 1.3535159211329304 18.984690850514824 255 255 255 1.0 22 1929 23 1013
18170 4.330726104178344 2.8986387585365065 13.18440936117528 255 255 255 1.0 22 1930 23 1014
18171 5.719896162418709 -2.9256573908115584 19.917229369021793 255 255 255 1.0 22 1931 23 1015
18172 3.9466638482643 2.70391544052736 16.364358857012892 255 255 255 1.0 22 1932 23 1016
18173 0.2760034484038999 -3.9138061529356203 19.47231115149454 255 255 255 1.0 22 1933 23 1017
18174 0.7912289192905246 1.009191224342605 14.107191009734173 255 255 255 1.0 22 1934 23 1018 23 1019 24 465 24 466
18175 5.208286008268715 2.7295034533092966 12.128730361325111 255 255 255 1.0 22 1935 23 1020 24 467
18176 6.7429898485889375 2.3665198850440095 19.85454053648055 255 255 255 1.0 22 1936 23 1021
18177 2.728939302994233 0.40286622331168265 12.98698061788754 255 255 255 1.0 22 1937 23 1022 24 468 25 233 26 127
18178 -1.1121168441148466 1.6639340789413817 16.240440062650332 255 255 255 1.0 22 1938 23 1023
18179 3.3368618612742766 -2.97199696078131 18.981072194735077 255 255 255 1.0 22 1939 23 1024
18180 5.794515247749679 0.504832277252372 17.466133204832342 255 255 255 1.0 22 1940 23 1025 24 469
18181 5.100621312888634 2.7841448348909204 14.756409750676479 255 255 255 1.0 22 1941 23 1026
18182 1.0006184096332842 -2.5770478107787986 18.07252808473804 255 255 255 1.0 22 1942 23 1027
18183 6.342517352860374 -2.1340463084429606 16.592186157400146 255 255 255 1.0 22 1943 23 1028 24 470 25 234 26 128
18184 -1.1243438098826617 -3.180742752907196 16.93598241805188 255 255 255 1.0 22 1944 23 1029
18185 0.9908595294654167 2.3918447363803264 12.4256155985269 255 255 255 1.0 22 1945 23 1030 24 471
18186 5.141735947068085 -2.596696752820689 19.95082614826724 255 255 255 1.0 22 1946 23 1031
18187 3.6855488059580006 -1.2959342962021092 19.16474658929934 255 255 255 1.0 22 1947 23 1032
18188 9.56580523305468 -1.1401686255571317 6.692234971311508 255 255 255 1.0 22 1948 23 1033
18189 4.398552773356371 2.90769378315124 13.305447665264612 255 255 255 1.0 22 1949 23 1034
18190 5.513189046122015 2.45150760729196 13.965891817847407 255 255 255 1.0 22 1950 23 1035 24 472
18191 2.1137305649294325 2.6039428691996687 13.452475802661567 255 255 255 1.0 22 1951 23 1036
18192 5.024491729168481 -0.674068159982875 11.604885239249787 255 255 255 1.0 22 1952 23 1037
18193 0.07843136699182862 -4.391773494954923 16.900051157291053 255 255 255 1.0 22 1953 23 1038 24 473
18194 4.096876009269587 2.935928037937656 12.400287313236712 255 255 255 1.0 22 1954 23 1039
18195 6.440093590652074 1.632482464173505 19.549259562636756 255 255 255 1.0 22 1955 23 1040
18196 2.208955119734257 -6.860480286813263 24.701833594291433 255 255 255 1.0 22 1956 23 1041
18197 5.226341688970042 2.723313930885912 12.140567103492366 255 255 255 1.0 22 1957 23 1042 24 474
18198 2.381363636003112 2.6983499080637587 13.259186211798271 255 255 255 1.0 22 1958 23 1043
18199 3.2064174072277325 -4.698554471931923 20.91146330842749 255 255 255 1.0 22 1959 23 1044
18200 7.313492333282635 1.688264802166434 17.398424471450674 255 255 255 1.0 22 1960 23 1045 24 475 25 235
18201 7.116776303257657 -0.8347254400904575 10.739032736083987 255 255 255 1.0 22 1961 23 1046
18202 -1.295705882251216 -3.2093121904828537 16.99386436572736 255 255 255 1.0 22 1962 23 1047
18203 6.822173478693901 2.526037681635893 20.863122772484818 255 255 255 1.0 22 1963 23 1048
18204 7.885307276551047 2.9113363068225375 16.970074379722597 255 255 255 1.0 22 1964 23 1049
18205 4.741076031684683 2.600152107928065 12.41014052933892 255 255 255 1.0 22 1965 23 1050 24 476
18206 2.85773233231978 -1.2722663538398318 16.942411509589505 255 255 255 1.0 22 1966 22 1967 23 1051 24 477
18207 9.999238955220289 -0.4827958049979078 7.168097510670151 255 255 255 1.0 22 1968 23 1052
18208 11.065178471123952 -0.3857164195156709 4.653056885060993 255 255 255 1.0 22 1969 23 1053
18209 6.370273146275688 2.9691354802276924 14.188219488676584 255 255 255 1.0 22 1970 23 1054
18210 7.919474348830316 2.9578044561850545 16.89617609480064 255 255 255 1.0 22 1971 23 1055
18211 2.828090509501634 -2.3147170977107283 19.47659004688511 255 255 255 1.0 22 1972 23 1056
18212 0.4742889043310493 1.5318603385869847 14.498372918576527 255 255 255 1.0 22 1973 23 1057 24 478 25 236
18213 1.9274570115088328 -1.3969305461967807 18.42209452921555 255 255 255 1.0 22 1974 23 1058
18214 1.7720215864971074 -4.497657457720889 16.84952036201412 255 255 255 1.0 22 1975 23 1059 24 479 25 237
18215 2.8218275691430823 2.6775110485167346 13.652941135615581 255 255 255 1.0 22 1976 23 1060
18216 2.29395139214196 -4.5314725186325315 20.624992794029264 255 255 255 1.0 22 1977 23 1061
18217 -2.1836166442820453 -1.1289289690668771 14.90049553594756 255 255 255 1.0 22 1978 23 1062 24 480
18218 0.8308289659763541 -0.9189607071115803 17.700988308355573 255 255 255 1.0 22 1979 23 1063
18219 6.954960927275766 2.6032142511303835 20.97817981763888 255 255 255 1.0 22 1980 23 1064
18220 -2.1749712129485497 -6.264289312810345 19.960169875737673 255 255 255 1.0 22 1981 23 1065
18221 0.6120554637871132 0.5055142307298849 15.025220633923913 255 255 255 1.0 22 1982 23 1066
18222 5.693360119950077 0.5967470353914492 17.39758641294211 255 255 255 1.0 22 1983 23 1067 24 481
18223 -0.17714048774879854 0.8045678859663713 14.663420213434033 255 255 255 1.0 22 1984 23 1068 24 482
18224 5.7572416388701795 0.3138168073458072 19.59584261013995 255 255 255 1.0 22 1985 23 1069
18225 -2.0331271852252564 -5.201318886782985 18.181219878642377 255 255 255 1.0 22 1986 23 1070
18226 7.3143030957603035 2.7326220990438292 13.128063266853887 255 255 255 1.0 22 1987 23 1071 24 483
18227 3.0692050782126103 2.827103846946634 12.530957823137658 255 255 255 1.0 22 1988 23 1072
18228 -1.6040180157113442 -2.860941436488832 17.179201075216195 255 255 255 1.0 22 1989 23 1073
18229 3.2018396093462065 2.787432819243599 13.459232550813848 255 255 255 1.0 22 1990 23 1074
18230 -0.8461663127900125 2.602768204294363 13.112126477639581 255 255 255 1.0 22 1991 23 1075
18231 -0.810617768212901 -0.9590123254055783 16.91296579976959 255 255 255 1.0 22 1992 23 1076
18232 4.9915042971870465 -4.398678463314218 21.52531159441719 255 255 255 1.0 22 1993 23 1077
18233 6.900810362589118 2.989513713751903 20.610804996688756 255 255 255 1.0 22 1994 23 1078
18234 4.904568148107432 -0.9189299478644559 13.143614191647814 255 255 255 1.0 22 1995 23 1079
18235 4.184798833826263 2.8447722938524485 13.548664242955509 255 255 255 1.0 22 1996 23 1080
18236 0.29653368731850344 2.7259163729497917 16.749569364432936 255 255 255 1.0 22 1997 23 1081
18237 6.105506883584564 2.0000821994412936 16.3347075839563 255 255 255 1.0 22 1998 23 1082 24 484 25 238 26 129 27 81
18238 3.9817551641052873 -0.05622578425877563 17.903413944783452 255 255 255 1.0 22 1999 23 1083
18239 6.930610717603709 2.5377866164360703 20.96487930101202 255 255 255 1.0 22 2000 23 1084
18240 4.170947493965868 2.827373256988384 13.596079851807422 255 255 255 1.0 22 2001 23 1085
18241 5.30806874641129 2.398025088763039 11.911540826191482 255 255 255 1.0 22 2002 23 1086 24 485 25 239 26 130 27 82 28 59 29 41
18242 -2.617465391705259 -1.4989239866317332 16.396582580662816 255 255 255 1.0 22 2003 23 1087
18243 7.987064844608575 2.7757497407905385 13.51016979890008 255 255 255 1.0 22 2004 23 1088 24 486
18244 2.4636425745782633 -2.97235835528892 18.14762151597011 255 255 255 1.0 22 2005 23 1089 24 487 25 240 26 131 27 83 28 60 29 42 30 33 31 24
18245 5.5965107410450665 1.5657057619257544 17.15791510441538 255 255 255 1.0 22 2006 23 1090 24 488
18246 0.504317143624257 -1.2510522480781843 17.645788053423225 255 255 255 1.0 22 2007 23 1091
18247 5.069348468578099 1.0225737395414751 14.906485718513402 255 255 255 1.0 22 2008 23 1092 24 489 25 241 26 132 27 84
18248 4.845867119799429 0.9386661234392283 19.003002425117767 255 255 255 1.0 22 2009 23 1093
18249 -2.0720419936552203 -2.875713876914551 16.952770960694583 255 255 255 1.0 22 2010 23 1094
18250 4.834493752845534 -2.493346171688247 19.8393754804633 255 255 255 1.0 22 2011 23 1095
18251 7.287552332586909 2.499509774011233 12.119521537908053 255 255 255 1.0 22 2012 23 1096 24 490 25 242 26 133
18252 2.0899352885565126 2.2948846713789086 12.512987455482863 255 255 255 1.0 22 2013 23 1097 24 491
18253 0.8080546790400253 -3.0925892374768376 17.832391116281805 255 255 255 1.0 22 2014 23 1098
18254 2.107893688106287 0.5288520990221925 14.097686998542606 255 255 255 1.0 22 2015 23 1099 24 492
18255 3.490072027707834 2.6285108661954797 14.546281183817785 255 255 255 1.0 22 2016 23 1100
18256 0.6321142976749188 -3.0808291337722 17.77094752629235 255 255 255 1.0 22 2017 23 1101
18257 3.6421815066956675 2.8384734946690404 13.285498254042507 255 255 255 1.0 22 2018 23 1102
18258 8.49572841407736 3.1596786423122274 14.523343212254032 255 255 255 1.0 22 2019 23 1103
18259 -1.6997875143933574 -4.648674344538825 18.73326579251841 255 255 255 1.0 22 2020 23 1104
18260 1.098243381171489 -0.8317502797948523 17.790277899810622 255 255 255 1.0 22 2021 23 1105
18261 0.30836302008305444 -4.617483155393957 19.62124298457928 255 255 255 1.0 22 2022 23 1106
18262 6.662609504366094 0.607318000287428 16.194950532994554 255 255 255 1.0 22 2023 23 1107 24 493 25 243 26 134 27 85 28 61 29 43 30 34
18263 3.239271024801168 2.787428972154456 13.256224689916301 255 255 255 1.0 22 2024 23 1108
18264 3.9412142364421605 -1.2209483417654892 17.103589593992616 255 255 255 1.0 22 2025 23 1109 24 494
18265 5.0966227707935525 -2.5561979404295503 19.902587989743292 255 255 255 1.0 22 2026 23 1110
18266 3.2306171175301133 2.3555384300089717 10.016191109527043 255 255 255 1.0 22 2027 23 1111 24 495 25 244 26 135
18267 2.5833930205315667 -3.0648876764739326 18.58096211395547 255 255 255 1.0 22 2028 23 1112
18268 -0.7666096776173521 -1.6717192469700777 19.63662902050931 255 255 255 1.0 22 2029 23 1113 24 496
18269 5.149811760064177 -4.437660158126781 21.487454030816355 255 255 255 1.0 22 2030 23 1114
18270 1.2419315349971072 2.519814324888104 17.19183085584134 255 255 255 1.0 22 2031 23 1115
18271 -1.5050619069588695 1.0421182963811448 16.24837165640567 255 255 255 1.0 22 2032 23 1116
18272 1.746517128709452 -5.052879771606 19.829586593272904 255 255 255 1.0 22 2033 23 1117
18273 4.628752413211535 0.9403789375545978 18.891421023331187 255 255 255 1.0 22 2034 23 1118
18274 7.348385688870168 2.647420032459771 13.094349146397914 255 255 255 1.0 22 2035 23 1119 24 497 25 245
18275 0.7956449427246823 -3.473087091660965 16.69153299972197 255 255 255 1.0 22 2036 23 1120 24 498 25 246
18276 5.106520002382089 -4.179696881410444 19.097989869922195 255 255 255 1.0 22 2037 23 1121 24 499
18277 0.27587631356514214 2.353325847092264 12.090563904494765 255 255 255 1.0 22 2038 23 1122 24 500
18278 -1.5618491647240678 -4.910997994695913 18.576505019557732 255 255 255 1.0 22 2039 23 1123
18279 3.421109939027377 -0.3671761359910378 18.700159563211365 255 255 255 1.0 22 2040 23 1124
18280 -2.156158223041261 -5.827267729758902 19.827927475840617 255 255 255 1.0 22 2041 23 1125
18281 5.637469510237573 3.0358141029164734 13.217022157058288 255 255 255 1.0 22 2042 23 1126
18282 -1.4916161337944283 -4.870772797546175 18.748608422135245 255 255 255 1.0 22 2043 23 1127
18283 3.6649438292821137 1.1580853203716432 16.699740913846494 255 255 255 1.0 22 2044 23 1128
18284 6.768990802055762 2.7589363720866125 20.91193444792592 255 255 255 1.0 22 2045 23 1129
18285 -0.8516403842951538 -5.152991043920708 18.73843298985313 255 255 255 1.0 22 2046 23 1130
18286 2.0692604230238105 2.134939672612722 13.751359972034196 255 255 255 1.0 22 2047 23 1131 24 501
18287 6.416242025211536 -3.013661065430064 18.5349042499504 255 255 255 1.0 22 2048 23 1132 24 502 25 247 26 136 27 86
18288 2.9545711626180307 0.33294716395156754 12.486199429027891 255 255 255 1.0 22 2049 23 1133 24 503 25 248 26 137
18289 4.023867605916951 2.5340886880144575 12.158972807978797 255 255 255 1.0 22 2050 23 1134 24 504
18290 10.37181860981101 -0.4035383207303682 5.135598763655576 255 255 255 1.0 22 2051 23 1135
18291 5.937715818568616 -2.287475406910612 16.950442878768552 255 255 255 1.0 22 2052 23 1136 24 505
18292 8.396622506934266 -0.635346042497824 7.322417663261652 255 255 255 1.0 22 2053 23 1137
18293 2.128398195494289 0.485731432827081 14.044401632942243 255 255 255 1.0 22 2054 23 1138 24 506
18294 2.5307486667734893 2.480709811475363 11.772795072396928 255 255 255 1.0 22 2055 23 1139 24 507
18295 1.8615845685658359 -4.5535601002760595 20.31719384009817 255 255 255 1.0 22 2056 23 1140
18296 0.5047490252984554 -1.590014282470558 15.668005454188389 255 255 255 1.0 22 2057 23 1141 24 508
18297 3.072675186658987 -2.5308613009650553 19.11914363712091 255 255 255 1.0 22 2058 23 1142
18298 6.915145177029554 0.6258993076920607 16.876172416545742 255 255 255 1.0 22 2059 23 1143 24 509
18299 5.439908028860696 -1.1080919986425277 13.428003240331453 255 255 255 1.0 22 2060 23 1144
18300 2.539815169650293 2.7459461956388576 12.94767690537032 255 255 255 1.0 22 2061 23 1145
18301 5.584574731431512 2.7865653200800966 15.19319097600746 255 255 255 1.0 22 2062 23 1146
18302 4.153694928449743 2.85076718911395 13.559636451257688 255 255 255 1.0 22 2063 23 1147
18303 0.7595517940191586 -4.00321175348661 16.14655445507932 255 255 255 1.0 22 2064 23 1148 24 510 25 249
18304 0.6437744394305037 -1.6289573949277072 19.03636447345723 255 255 255 1.0 22 2065 23 1149
18305 5.860927801942208 2.723631363513119 15.369272430141123 255 255 255 1.0 22 2066 23 1150
18306 5.858981815082173 0.7547331855314512 19.53306018521221 255 255 255 1.0 22 2067 23 1151
18307 0.7238785135976726 -2.332474199170033 15.366538107185548 255 255 255 1.0 22 2068 23 1152 24 511 25 250
18308 -0.1466034034289998 -2.8013673644801 17.75125292759639 255 255 255 1.0 22 2069 23 1153
18309 -0.2099003281259691 2.6687626549233294 13.422668777941096 255 255 255 1.0 22 2070 23 1154
18310 2.9719636818120803 2.8212222977015355 12.969221762184494 255 255 255 1.0 22 2071 23 1155
18311 6.264102847346123 2.7758059962438737 12.744369883925906 255 255 255 1.0 22 2072 23 1156 24 512
18312 -0.43424165230136985 -1.5057746962564407 17.294377291790656 255 255 255 1.0 22 2073 23 1157
18313 6.783048095286796 2.9924849364614796 14.425452539087857 255 255 255 1.0 22 2074 23 1158
18314 0.9793168165021692 -1.5855921728561215 18.204476328716115 255 255 255 1.0 22 2075 23 1159
18315 4.812409406455778 2.6507725373778577 12.149048617307058 255 255 255 1.0 22 2076 23 1160 24 513
18316 -0.5040605518400467 -3.0934021815261854 17.629338578239324 255 255 255 1.0 22 2077 23 1161
18317 3.3095008821055565 2.938129435414981 12.581178104051405 255 255 255 1.0 22 2078 23 1162
18318 3.5912382696348066 2.6999448461004967 13.84588319781161 255 255 255 1.0 22 2079 23 1163
18319 7.403252991022281 -0.7618376398747138 8.055775761792964 255 255 255 1.0 22 2080 23 1164
18320 2.410795838920242 -2.7143017169582113 18.787323572385187 255 255 255 1.0 22 2081 23 1165
18321 1.9062455473937203 -1.5361646076621254 18.44170855339242 255 255 255 1.0 22 2082 23 1166
18322 -2.8045018135927817 -1.6702932689568604 16.496634508367116 255 255 255 1.0 22 2083 23 1167
18323 0.8874165537977791 2.419416050592668 12.38710675110336 255 255 255 1.0 22 2084 23 1168 24 514
18324 6.942606920125885 3.0098232607112125 14.46659387800757 255 255 255 1.0 22 2085 23 1169
18325 4.461064896484375 -2.4838250215790207 19.671790990625368 255 255 255 1.0 22 2086 23 1170
18326 3.5545710684641154 2.623940477804642 11.570001747194354 255 255 255 1.0 22 2087 23 1171 24 515
18327 8.70437181128094 3.10006417535264 14.615293878001298 255 255 255 1.0 22 2088 23 1172
18328 -1.7990094294506833 -1.3407278081143208 16.642193712130865 255 255 255 1.0 22 2089 23 1173
18329 2.1674280087900772 2.836230696048697 12.081490629240891 255 255 255 1.0 22 2090 23 1174
18330 5.281813980610527 -4.847571662099539 21.24008380216402 255 255 255 1.0 22 2091 23 1175
18331 2.8593602435123584 -0.9586867487771985 18.5541522571403 255 255 255 1.0 22 2092 23 1176
18332 1.434247130029025 -0.2597612509728072 15.047749409010247 255 255 255 1.0 22 2093 23 1177 24 516
18333 3.301456249312661 0.9329250057620602 15.278423247729684 255 255 255 1.0 22 2094 23 1178 24 517 25 251 26 138 27 87 28 62 29 44 30 35 31 25
18334 5.787733959454861 -1.0232751428670372 12.971159075080488 255 255 255 1.0 22 2095 23 1179 24 518
18335 -3.562772465169833 -1.760180591912058 18.345842703226715 255 255 255 1.0 22 2096 23 1180 24 519
18336 5.616588072613521 2.649748922821662 12.950883673726128 255 255 255 1.0 22 2097 23 1181 24 520
18337 1.0992874386884834 -2.8250362837913494 15.76510851395412 255 255 255 1.0 22 2098 23 1182 24 521
18338 4.805617614031307 2.392821889848173 16.72648118382397 255 255 255 1.0 22 2099 23 1183
18339 7.788167593379667 2.9912655741513 14.350422607107571 255 255 255 1.0 22 2100 23 1184
18340 2.921463242634105 -2.694406738263197 18.959349145451064 255 255 255 1.0 22 2101 23 1185
18341 6.810357194254927 2.956808678350677 14.508048531856483 255 255 255 1.0 22 2102 23 1186
18342 5.9694976108771245 1.0142354025793578 19.567091054309074 255 255 255 1.0 22 2103 23 1187
18343 4.921895913865013 2.790567922158901 14.596758478169463 255 255 255 1.0 22 2104 23 1188
18344 0.766061001930264 1.0615812185050928 15.660449871268003 255 255 255 1.0 22 2105 23 1189
18345 6.008973287055444 0.6495443538392146 19.664435324764014 255 255 255 1.0 22 2106 23 1190
18346 8.03375694289812 3.066790502029035 14.497361973085328 255 255 255 1.0 22 2107 23 1191
18347 1.3029527828061727 2.5609279327687453 13.255324481727776 255 255 255 1.0 22 2108 23 1192
18348 7.290766255291638 2.9959455997350783 14.682482726546512 255 255 255 1.0 22 2109 23 1193
18349 0.9410902126137937 -2.788815062984972 17.933327738336672 255 255 255 1.0 22 2110 23 1194
18350 4.10269649504397 -4.926768221545986 20.82206933093243 255 255 255 1.0 22 2111 23 1195
18351 6.658997989127058 2.961882976594629 14.406482097228679 255 255 255 1.0 22 2112 23 1196
18352 0.34050171037509797 2.4771755739096513 12.106351601499355 255 255 255 1.0 22 2113 23 1197 24 522
18353 5.567549786900599 2.4425766173260914 13.216546430978156 255 255 255 1.0 22 2114 23 1198 24 523 25 252
18354 -2.7387115028438456 2.376123543203363 15.239887954575003 255 255 255 1.0 22 2115 23 1199
18355 5.719160165996765 1.6188246303499199 19.348258747799168 255 255 255 1.0 22 2116 23 1200
18356 9.109759165733687 3.080387553772329 14.661120852347931 255 255 255 1.0 22 2117 23 1201
18357 0.891983180654173 0.9077007900450986 15.517837172274364 255 255 255 1.0 22 2118 23 1202
18358 3.9755784943655517 0.9312964186276131 10.746866075593353 255 255 255 1.0 22 2119 23 1203
18359 5.074003965663911 0.6136789219420394 19.192358439941355 255 255 255 1.0 22 2120 23 1204
18360 6.46068262639541 2.0670378015794326 19.501692773172593 255 255 255 1.0 22 2121 23 1205
18361 -0.11065905533944953 -2.603658732443412 15.559047443458393 255 255 255 1.0 22 2122 23 1206 24 524
18362 6.726636628399801 2.7268734987315075 20.85642289273781 255 255 255 1.0 22 2123 23 1207
18363 3.1057175178886673 0.9621395783763733 13.984689708954551 255 255 255 1.0 22 2124 23 1208 24 525
18364 1.4991683560812998 1.9738302348726278 17.135368705080634 255 255 255 1.0 22 2125 23 1209
18365 6.147338566904833 0.8227068849522503 19.628581768810832 255 255 255 1.0 22 2126 23 1210
18366 5.345630380556388 -0.8717369376965949 9.909809415261858 255 255 255 1.0 22 2127 23 1211
18367 5.805774758710694 -2.900777680446455 20.032925108472618 255 255 255 1.0 22 2128 23 1212
18368 6.588829023945985 0.6384185355449177 17.81870441478951 255 255 255 1.0 22 2129 23 1213 24 526
18369 1.1409278577641233 2.7840836497122297 11.538180321036318 255 255 255 1.0 22 2130 23 1214
18370 4.960866144215226 -4.750100845596924 21.624546748109946 255 255 255 1.0 22 2131 23 1215
18371 2.973264528399798 -1.1948995260697766 13.386723807882523 255 255 255 1.0 22 2132 23 1216 24 527
18372 4.037166364757284 -2.663925465470913 19.62774177946235 255 255 255 1.0 22 2133 23 1217
18373 -0.7553527446273895 -0.9967333431255262 13.33773157610784 255 255 255 1.0 22 2134 23 1218 24 528 25 253
18374 4.055057259549066 -1.166371254667578 15.018026799707606 255 255 255 1.0 22 2135 23 1219 23 1220 24 529
18375 0.43574385156426587 2.8395590593428635 16.82429560884008 255 255 255 1.0 22 2136 23 1221
18376 4.5283050683724175 2.9011170928575076 13.244259878197036 255 255 255 1.0 22 2137 23 1222
18377 0.4437684128633965 2.544892058687595 16.70787482547568 255 255 255 1.0 22 2138 23 1223
18378 7.1539584892728225 2.7637741074879303 16.51289549305205 255 255 255 1.0 22 2139 23 1224
18379 6.612445219466435 -0.5050225965587789 14.969737476910904 255 255 255 1.0 22 2140 23 1225 24 530
18380 0.527939108548292 -6.244708010269265 23.192287847282888 255 255 255 1.0 22 2141 23 1226
18381 1.3462683419056651 -5.057989072881499 19.702221249575985 255 255 255 1.0 22 2142 23 1227
18382 3.356596888869662 -1.1324310624316878 15.950313559557536 255 255 255 1.0 22 2143 23 1228 24 531 25 254 26 139 27 88 28 63
18383 6.09533579454405 3.074562497656181 13.64831674791304 255 255 255 1.0 22 2144 23 1229
18384 6.821826996302388 1.3393364182387162 17.721544888012442 255 255 255 1.0 22 2145 23 1230 24 532
18385 5.582062026701201 2.6170172487675942 18.98911350363481 255 255 255 1.0 22 2146 23 1231
18386 4.518342385400971 1.9209498665251865 18.80469999308923 255 255 255 1.0 22 2147 23 1232
18387 -1.1553633181432128 -1.0545772445861252 13.565286159789222 255 255 255 1.0 22 2148 23 1233
18388 4.178980332535554 -1.202901328720085 15.205391911578213 255 255 255 1.0 22 2149 23 1234 24 533
18389 5.314947053124968 -3.9081540930145486 18.571760521393877 255 255 255 1.0 22 2150 23 1235 24 534 25 255
18390 3.138613630830839 2.768622880545895 13.48561619526594 255 255 255 1.0 22 2151 23 1236
18391 2.097175552094092 2.3914873019666647 12.065016290454164 255 255 255 1.0 22 2152 23 1237 24 535
18392 6.089775799305029 2.5068077269642037 14.091356604538817 255 255 255 1.0 22 2153 23 1238 24 536
18393 6.862655940358369 2.8475006570596886 19.36503435797686 255 255 255 1.0 22 2154 23 1239
18394 10.22045341148622 0.05708865906822155 5.946050235779279 255 255 255 1.0 22 2155 23 1240
18395 2.893883100383253 2.867198576651439 12.61794198789042 255 255 255 1.0 22 2156 23 1241
18396 0.629559911342332 0.4788278581809397 15.062236418368313 255 255 255 1.0 22 2157 23 1242
18397 7.086802692008292 2.7679770010166354 12.957403564820115 255 255 255 1.0 22 2158 23 1243 24 537
18398 6.7568190765701175 2.6041839983583164 20.950336716169616 255 255 255 1.0 22 2159 23 1244
18399 -1.6585683472222186 2.0156983447671095 16.02238309061759 255 255 255 1.0 22 2160 23 1245
18400 6.028180568853378 1.929346753568967 19.31282015236756 255 255 255 1.0 22 2161 23 1246
18401 1.4900859076184367 2.792479264651716 11.734017520298641 255 255 255 1.0 22 2162 23 1247
18402 4.633936883667755 1.3191386010691548 18.97006066301482 255 255 255 1.0 22 2163 23 1248
18403 2.1689796956722174 2.6736405465823734 13.431995115223161 255 255 255 1.0 22 2164 23 1249
18404 3.7264224887671906 0.33886415172898077 17.39585448974164 255 255 255 1.0 22 2165 23 1250
18405 7.5925325396963785 1.1005103176750806 18.793265780473675 255 255 255 1.0 22 2166 23 1251
18406 2.6006784396327234 2.619883620014216 13.901832244812372 255 255 255 1.0 22 2167 23 1252
18407 7.303338689610404 -0.2089174957485472 10.170612500681342 255 255 255 1.0 22 2168 23 1253
18408 -4.219767561214708 -1.2070516091638364 16.490301612738758 255 255 255 1.0 22 2169 23 1254
18409 5.835220537772043 1.7313718483313352 17.293596669456022 255 255 255 1.0 22 2170 23 1255 24 538
18410 5.77547105516328 0.5581435658578369 15.6639740365489 255 255 255 1.0 22 2171 23 1256 24 539
18411 -3.075365301380439 -6.942321946528874 21.946611288631914 255 255 255 1.0 22 2172 23 1257
18412 0.9122851652736933 2.4529119089876508 15.38531926422872 255 255 255 1.0 22 2173 23 1258
18413 5.5959505110769925 2.998444352840913 13.578758447469616 255 255 255 1.0 22 2174 23 1259
18414 6.031849258134161 0.7088849301306304 19.66660391209613 255 255 255 1.0 22 2175 23 1260
18415 -0.6736090299103766 2.6528903958221064 13.28485021086343 255 255 255 1.0 22 2176 23 1261
18416 5.090954460814128 2.0034423308215774 19.029939484813163 255 255 255 1.0 22 2177 23 1262
18417 -0.8785590039169735 -4.7059861054432925 16.21414930804152 255 255 255 1.0 22 2178 23 1263 24 540
18418 0.3305550143946916 2.5467765215378497 12.103407541811627 255 255 255 1.0 22 2179 23 1264 24 541
18419 4.678471797759329 1.2577400698380865 19.014981555327363 255 255 255 1.0 22 2180 23 1265
18420 2.880889617567657 2.862635664618385 12.258366130163623 255 255 255 1.0 22 2181 23 1266
18421 -1.161819121780544 -4.384885197149118 18.510078908575903 255 255 255 1.0 22 2182 23 1267
