# 3D point list with one line of data per point:
#   POINT3D_ID, X, Y, Z, R, G, B, ERROR, TRACK[]
4822 -0.8820483311143741 -5.32233100400391 27.41578006680333 255 255 255 1.0 17 603 18 305
4823 -13.272214340860106 -4.4641185785566195 33.49539731281684 255 255 255 1.0 17 604 18 306
4824 -4.875723166462719 -4.933924214955545 29.049767067328535 255 255 255 1.0 17 605 18 307
4825 -5.618299451626963 -4.684191119368557 28.646142650478975 255 255 255 1.0 17 606 18 308
4826 -10.766143397977835 -4.448023919803623 31.754235249675506 255 255 255 1.0 17 607 18 309
4827 -5.724808774133895 -4.659804286825024 28.684860930140356 255 255 255 1.0 17 608 18 310
4828 -6.9318120972382085 -4.70400229886525 29.914821062380067 255 255 255 1.0 17 609 18 311
4829 -4.133474165808188 -4.8763890232660785 28.65624912004992 255 255 255 1.0 17 610 18 312
4830 -2.497639805680105 -4.956809384644106 27.645859037928528 255 255 255 1.0 17 611 18 313
4831 -10.652016690621632 -4.057049768177995 30.329298237235832 255 255 255 1.0 17 612 18 314
4832 -2.0678120654303456 -5.231814710521292 29.18331970079392 255 255 255 1.0 17 613 18 315
4833 -10.55734315835071 -4.2862513344249225 31.70894797115551 255 255 255 1.0 17 614 18 316
4834 -5.421076245119326 -4.475045598155558 28.5652568736759 255 255 255 1.0 17 615 18 317
4835 -12.435008659612992 -3.8452099460256637 31.297227482452143 255 255 255 1.0 17 616 18 318
4836 -1.0103767827804142 -4.973172114945689 27.533825323461404 255 255 255 1.0 17 617 18 319
4837 -11.42842853149891 -4.082108293840321 31.863019138210344 255 255 255 1.0 17 618 18 320
4838 -11.315467837670168 -4.097882137997374 31.845826033309535 255 255 255 1.0 17 619 18 321
4839 -1.0020976430176862 -5.1423601808774 28.471407274496446 255 255 255 1.0 17 620 18 322
4840 -10.967773985718122 -4.274093911138476 32.539263966651255 255 255 255 1.0 17 621 18 323
4841 -10.85094994822603 -4.290205319075969 32.52071210290993 255 255 255 1.0 17 622 18 324
4842 -12.4510675447013 -3.706612133500718 31.308005690999316 255 255 255 1.0 17 623 18 325
4843 -16.92949182965507 -2.918695886597985 31.306546123205667 255 255 255 1.0 17 624 18 326
4844 -5.336617503304381 -4.607081878987443 30.100956520871172 255 255 255 1.0 17 625 18 327
4845 -12.463082573032839 -3.9409106508050895 32.726958486462806 255 255 255 1.0 17 626 18 328
4846 -10.992190365669424 -3.999847815852482 31.80267972386901 255 255 255 1.0 17 627 18 329
4847 -19.004604078511846 -2.3111788643195177 30.351545016457468 255 255 255 1.0 17 628 18 330
4848 -18.442112830389263 -2.6831333586090276 31.65044513232709 255 255 255 1.0 17 629 18 331
4849 -16.85929617839453 -2.7501632911623246 30.732412336955505 255 255 255 1.0 17 630 18 332
4850 -16.766364494171373 -2.7678152811987364 30.742220183214627 255 255 255 1.0 17 631 18 333
4851 -10.719199186047998 -3.861531352662917 31.042114897656294 255 255 255 1.0 17 632 18 334
4852 -3.8551428143151205 -4.122434863211427 26.989036053185586 255 255 255 1.0 17 633 18 335
4853 -11.090082007237909 -4.349759292656199 34.197239899512454 255 255 255 1.0 17 634 18 336
4854 -11.695018236921133 -3.625227835546037 31.237387462615654 255 255 255 1.0 17 635 18 337
4855 -3.9591398776363724 -4.071135873939499 27.024457271118308 255 255 255 1.0 17 636 18 338
4856 -17.059157987414007 -2.8428031409612173 31.92493183933427 255 255 255 1.0 17 637 18 339
4857 -1.8997500490953831 -4.754617030900753 29.107000064615345 255 255 255 1.0 17 638 18 340
4858 -5.180969241877328 -4.716200009913865 31.74081462892783 255 255 255 1.0 17 639 18 341
4859 -16.81776718196213 -2.6898372388145324 31.338520292863222 255 255 255 1.0 17 640 18 342
4860 -16.72226796265452 -2.707708969321945 31.349493464604542 255 255 255 1.0 17 641 18 343
4861 -11.73826416542997 -3.93979837885579 33.4505061519168 255 255 255 1.0 17 642 18 344
4862 -2.756302631992024 -4.481033780944365 28.740781225608096 255 255 255 1.0 17 643 18 345
4863 -16.538528200669006 -2.8393004632275156 32.001050120090795 255 255 255 1.0 17 644 18 346
4864 -16.415764990339966 -2.500263385405561 30.21973431891376 255 255 255 1.0 17 645 18 347
4865 -12.919924454622462 -3.574213991139554 32.798870318064516 255 255 255 1.0 17 646 18 348
4866 -12.777493012825692 -3.5958046353472497 32.78986833673592 255 255 255 1.0 17 647 18 349
4867 -12.055235955844973 -3.8385385728035097 33.50735421962978 255 255 255 1.0 17 648 18 350
4868 -6.645567916695229 -4.6920225670687286 33.260323355305445 255 255 255 1.0 17 649 18 351
4869 -15.981738140530185 -3.0456072867994624 32.73133368784193 255 255 255 1.0 17 650 18 352
4870 -15.681635630233979 -3.238560413152137 33.47377202178971 255 255 255 1.0 17 651 18 353
4871 -14.258878836641179 -2.958594541418598 30.827359618160553 255 255 255 1.0 17 652 18 354
4872 -17.241659590674193 -2.6542502727728423 31.9087684635962 255 255 255 1.0 17 653 18 355
4873 -15.317223227780646 -3.0056590935190384 32.10344300503574 255 255 255 1.0 17 654 18 356
4874 -15.187181478711471 -3.0279489125436267 32.10904031992406 255 255 255 1.0 17 655 18 357
4875 -18.49111554671447 -2.367048499981948 31.66964663440718 255 255 255 1.0 17 656 18 358
4876 -13.850823601661178 -3.194816038788431 32.13153622533209 255 255 255 1.0 17 657 18 359
4877 -14.337888068090642 -3.1149043191765666 32.12723353161139 255 255 255 1.0 17 658 18 360
4878 -11.659342481704316 -3.5014179494780033 31.95209926012513 255 255 255 1.0 17 659 18 361
4879 -1.411176662665659 -4.560137238633361 28.79550780095242 255 255 255 1.0 17 660 18 362
4880 -13.953611658147006 -3.2822020869268305 32.82776302292202 255 255 255 1.0 17 661 18 363
4881 -18.863484994710117 -2.2265094471191156 31.573608647390333 255 255 255 1.0 17 662 18 364
4882 -15.233320871938993 -3.042325486368929 32.79987651894542 255 255 255 1.0 17 663 18 365
4883 -9.687453920383694 -3.56612877195243 30.838596637480954 255 255 255 1.0 17 664 18 366
4884 -16.550921142776403 -2.655559308228623 32.013204476991596 255 255 255 1.0 17 665 18 367
4885 -15.100674707008503 -2.786684768030636 31.470112001641585 255 255 255 1.0 17 666 18 368
4886 -16.098298734620933 -2.835948790621026 32.7337782930983 255 255 255 1.0 17 667 18 369
4887 -13.081578431807046 -3.0715865321675913 31.406535112570086 255 255 255 1.0 17 668 18 370
4888 -0.9126109236662647 -4.615821474852285 29.40849027224776 255 255 255 1.0 17 669 18 371
4889 -18.83515336287657 -1.9101487624036668 30.4299215256389 255 255 255 1.0 17 670 18 372
4890 -15.22529452799846 -2.933981180923537 32.80851629855307 255 255 255 1.0 17 671 18 373
4891 -12.409071365064918 -3.239300558984691 32.0340617003113 255 255 255 1.0 17 672 18 374
4892 -12.102673430831432 -3.005225041625319 30.645453655661836 255 255 255 1.0 17 673 18 375
4893 -6.577699827310853 -4.144934766344084 32.345495047472255 255 255 255 1.0 17 674 18 376
4894 -0.8782167286321633 -4.484733206505765 29.436272140979003 255 255 255 1.0 17 675 18 377
4895 -16.855109263811737 -2.382699647630298 32.00257069020069 255 255 255 1.0 17 676 18 378
4896 -13.64833577947517 -3.0369267973436567 32.861430002057965 255 255 255 1.0 17 677 18 379
4897 -13.526060597474789 -2.928220095182751 32.14454538653151 255 255 255 1.0 17 678 18 380
4898 -2.9792132335727457 -4.3269797763966045 30.746131408942883 255 255 255 1.0 17 679 18 381
4899 -1.5786543483784332 -4.222219229283192 28.93102584032835 255 255 255 1.0 17 680 18 382
4900 -0.61031789266507 -4.419306479383983 29.276037142272102 255 255 255 1.0 17 681 18 383
4901 -5.97735836959898 -3.9276530831898424 31.220626148844083 255 255 255 1.0 17 682 18 384
4902 -1.3514333718141125 -4.374702086045676 29.764366713060504 255 255 255 1.0 17 683 18 385
4903 -18.974647532938988 -1.8206533969443832 30.976617394641938 255 255 255 1.0 17 684 18 386
4904 -12.001021681589183 -3.0981346367251645 32.001792873416036 255 255 255 1.0 17 685 18 387
4905 -3.8605963905206133 -4.045484322435277 30.286222813041338 255 255 255 1.0 17 686 18 388
4906 -1.2797337573619294 -4.172157799636542 28.730771522700625 255 255 255 1.0 17 687 18 389
4907 -18.89053442895866 -1.9293338241049793 31.58997378131771 255 255 255 1.0 17 688 18 390
4908 -16.578605027549 -2.3408783505553585 32.04169893039539 255 255 255 1.0 17 689 18 391
4909 -15.75511982842112 -2.1840481247051526 30.273046012268992 255 255 255 1.0 17 690 18 392
4910 -11.038273585610447 -3.194565677085268 31.863953211229525 255 255 255 1.0 17 691 18 393
4911 -6.529759829103008 -4.123036208643387 33.264509516412446 255 255 255 1.0 17 692 18 394
4912 -5.358216864729135 -3.907678863841125 30.999140985144756 255 255 255 1.0 17 693 18 395
4913 -18.713414674157583 -1.9405153271295905 31.63852797700038 255 255 255 1.0 17 694 18 396
4914 -7.402324655627623 -4.003392852200844 33.538300662144565 255 255 255 1.0 17 695 18 397
4915 -7.291044593096389 -4.025255591512547 33.471993856165035 255 255 255 1.0 17 696 18 398
4916 -17.988898710836487 -1.9506634237713445 31.196887927452433 255 255 255 1.0 17 697 18 399
4917 -14.800152937197511 -2.3749502742132407 30.886648452368863 255 255 255 1.0 17 698 18 400
4918 -4.428425316922779 -3.915836500743764 30.577038290293178 255 255 255 1.0 17 699 18 401
4919 -12.019808060351911 -2.9826189946334614 32.011789924251794 255 255 255 1.0 17 700 18 402
4920 -5.437235978647363 -3.9733834500461827 31.89847341807918 255 255 255 1.0 17 701 18 403
4921 -18.884476564749537 -1.8226851252784366 31.609235116313677 255 255 255 1.0 17 702 18 404
4922 -4.802713231857274 -3.9827367752407428 31.665138691229938 255 255 255 1.0 17 703 18 405
4923 -18.707745642033018 -1.8437658181536465 31.64782726324912 255 255 255 1.0 17 704 18 406
4924 -15.875648427899696 -2.244835386234952 31.467345718401493 255 255 255 1.0 17 705 18 407
4925 -13.078515967536275 -2.5550922855342706 30.78488227724476 255 255 255 1.0 17 706 18 408
4926 -3.8893392071459636 -3.869891312016185 30.278362312003836 255 255 255 1.0 17 707 18 409
4927 -14.553391544368132 -2.4259552057140548 31.504239544801937 255 255 255 1.0 17 708 18 410
4928 -14.449522705457245 -2.441535717072053 31.50303701326452 255 255 255 1.0 17 709 18 411
4929 -12.630030374206296 -2.5885303141429916 30.737785878552558 255 255 255 1.0 17 710 18 412
4930 -12.49283182136927 -2.596015397803694 30.738228581306632 255 255 255 1.0 17 711 18 413
4931 -6.213445514111407 -3.663884100532505 31.330400669699774 255 255 255 1.0 17 712 18 414
4932 -3.2203882733220865 -3.720218529077152 29.06390853128805 255 255 255 1.0 17 713 18 415
4933 -14.107858556422574 -2.4654442713632476 31.49695746436384 255 255 255 1.0 17 714 18 416
4934 -12.066307890915368 -2.62411337328014 30.682158000660362 255 255 255 1.0 17 715 18 417
4935 -4.234526380473703 -3.940197110565169 31.37442582540517 255 255 255 1.0 17 716 18 418
4936 -2.1786009117853586 -3.8942568199421763 29.340899056928155 255 255 255 1.0 17 717 18 419
4937 -18.181268739151292 -1.7689427595179172 31.1698908542703 255 255 255 1.0 17 718 18 420
4938 -13.696182109367383 -2.390984703856483 30.84090515810473 255 255 255 1.0 17 719 18 421
4939 -11.601632589697603 -2.777449113787509 31.261626904678636 255 255 255 1.0 17 720 18 422
4940 -6.405410058892537 -3.8624141867245383 33.25645207435358 255 255 255 1.0 17 721 18 423
4941 -6.081528549948913 -3.737520809987869 32.21075240738502 255 255 255 1.0 17 722 18 424
4942 -1.9964597619890516 -4.042922311702193 30.15800756109811 255 255 255 1.0 17 723 18 425
4943 -1.2980413568134963 -4.064456319311856 29.750594783438352 255 255 255 1.0 17 724 18 426
4944 -5.0953742583863635 -3.6630772906234177 30.869055674446336 255 255 255 1.0 17 725 18 427
4945 -4.955024020186332 -3.6736494137194584 30.805556600848302 255 255 255 1.0 17 726 18 428
4946 -3.557257640244361 -3.9135807787711285 31.08014018538077 255 255 255 1.0 17 727 18 429
4947 -4.295616608499602 -3.554540584424183 29.67125548632733 255 255 255 1.0 17 728 18 430
4948 -0.6797036759970431 -3.897511474004436 28.27987020396213 255 255 255 1.0 17 729 18 431
4949 -0.5865363647551486 -3.899927931454638 28.21000184021109 255 255 255 1.0 17 730 18 432
4950 -15.965711653524584 -2.101602956433074 31.47064539909098 255 255 255 1.0 17 731 18 433
4951 -15.919465524515882 -1.997972978822257 30.87691027814707 255 255 255 1.0 17 732 18 434
4952 -13.350584980030323 -2.3755392836723193 30.83476570377406 255 255 255 1.0 17 733 18 435
4953 -12.90589191488079 -2.4352311999835927 30.793000093492328 255 255 255 1.0 17 734 18 436
4954 -15.478827957134461 -2.041510482909841 30.89656664058929 255 255 255 1.0 17 735 18 437
4955 -15.083935935555294 -2.213912171217806 31.510675666865062 255 255 255 1.0 17 736 18 438
4956 -3.880155008906619 -3.1539601130993336 27.03143060525703 255 255 255 1.0 17 737 18 439
4957 0.6254290983750841 -3.696137527139214 26.231630893101922 255 255 255 1.0 17 738 18 440
4958 -17.48059008721497 -1.887131013985569 31.936984334447324 255 255 255 1.0 17 739 18 441
4959 -12.483037632137924 -2.4209129202600663 30.731700902061363 255 255 255 1.0 17 740 18 442
4960 -18.508221006472745 -1.7632317087134062 32.35266489843139 255 255 255 1.0 17 741 18 443
4961 -1.281365098976816 -3.8775637599609696 29.752549936733132 255 255 255 1.0 17 742 18 444
4962 -13.536118117117068 -2.331952982578714 31.484987839735 255 255 255 1.0 17 743 18 445
4963 -13.318668876772714 -2.258527865138642 30.824196950393933 255 255 255 1.0 17 744 18 446
4964 -12.725569288977411 -2.430209253886725 31.438197497280665 255 255 255 1.0 17 745 18 447
4965 -5.650728134828229 -3.4127469624012576 31.167784043804467 255 255 255 1.0 17 746 18 448
4966 -3.3908869658996994 -3.7450862498588258 30.969581619472525 255 255 255 1.0 17 747 18 449
4967 -15.713795898503134 -1.7089743291248054 29.745317493167544 255 255 255 1.0 17 748 18 450
4968 -12.971684682597363 -2.3811717646087653 31.44440934300173 255 255 255 1.0 17 749 18 451
4969 -18.535491447279846 -1.3001191820316336 29.9991822153925 255 255 255 1.0 17 750 18 452
4970 -12.58007999338115 -2.301748761203413 30.750728646834368 255 255 255 1.0 17 751 18 453
4971 -12.474413770447354 -2.3151368173418074 30.737521381439556 255 255 255 1.0 17 752 18 454
4972 -11.958471152195859 -2.4733684041052615 31.350939323984818 255 255 255 1.0 17 753 18 455
4973 -12.017539307426249 -2.3614613989509854 30.69295943798479 255 255 255 1.0 17 754 18 456
4974 -2.6663692778276524 -3.5656764355737334 29.659297302932902 255 255 255 1.0 17 755 18 457
4975 -0.44539821429994747 -3.8233584358754946 29.133230638058983 255 255 255 1.0 17 756 18 458
4976 -0.9509995105464595 -3.499618133580262 27.547553259751027 255 255 255 1.0 17 757 18 459
4977 -18.633178832112556 -1.3550482269646722 30.515983431336522 255 255 255 1.0 17 758 18 460
4978 -11.406636836868275 -2.5131368878814913 31.26963423796835 255 255 255 1.0 17 759 18 461
4979 -2.4484433723200474 -3.706144045868751 30.4525579228662 255 255 255 1.0 17 760 18 462
4980 -1.270235387286594 -3.752903582378166 29.753861850610946 255 255 255 1.0 17 761 18 463
4981 -16.910393200779634 -1.9085923667256157 32.70500149360494 255 255 255 1.0 17 762 18 464
4982 -5.039342358484696 -3.3617746387582192 30.86485124829754 255 255 255 1.0 17 763 18 465
4983 -15.674786781959599 -2.094125461019133 32.83494051884217 255 255 255 1.0 17 764 18 466
4984 -15.62500089524938 -1.7116581358745329 30.309302822541667 255 255 255 1.0 17 765 18 467
4985 -13.171470210879411 -2.2220199931771254 31.490528616476556 255 255 255 1.0 17 766 18 468
4986 -6.6930224225352575 -3.0682253212539132 30.715230250536024 255 255 255 1.0 17 767 18 469
4987 -0.011307192457660119 -3.584059643892855 27.784917105872065 255 255 255 1.0 17 768 18 470
4988 -9.703061384616614 -2.7450894980058576 31.637383232276914 255 255 255 1.0 17 769 18 471
4989 -8.727581792089719 -2.5198711939128224 29.248464450843525 255 255 255 1.0 17 770 18 472
4990 -0.7418499339077094 -3.379638195073834 27.432058755969834 255 255 255 1.0 17 771 18 473
4991 0.6227331041458335 -3.5643541398073295 27.25582685553633 255 255 255 1.0 17 772 18 474
4992 -17.409406425882903 -1.5609682228260127 31.333849181286613 255 255 255 1.0 17 773 18 475
4993 -8.688708572111425 -2.8115563681321745 31.405327859047073 255 255 255 1.0 17 774 18 476
4994 -11.3073060040873 -2.8633368665204064 34.33070824092723 255 255 255 1.0 17 775 18 477
4995 -6.6432708778360166 -3.097718086816488 31.558872272281995 255 255 255 1.0 17 776 18 478
4996 -7.1892820455996596 -2.808333021516704 30.155713337477806 255 255 255 1.0 17 777 18 479
4997 -4.247363134176774 -3.41100808496349 31.468735287445057 255 255 255 1.0 17 778 18 480
4998 -17.791228354382007 -1.529152327750923 31.904924065116717 255 255 255 1.0 17 779 18 481
4999 -15.531371669666607 -1.714466049664334 30.903980341092886 255 255 255 1.0 17 780 18 482
5000 -3.7821058376862373 -3.2964835714692944 30.26254874492307 255 255 255 1.0 17 781 18 483
5001 0.17632684580076055 -3.4685298719911994 27.640489026107076 255 255 255 1.0 17 782 18 484
5002 -13.348306579717844 -2.0630949919376778 31.51348697900243 255 255 255 1.0 17 783 18 485
5003 -1.2108710050787062 -3.11518987735037 26.89214878648109 255 255 255 1.0 17 784 18 486
5004 0.4833481159356086 -3.444024323092288 27.38472559709494 255 255 255 1.0 17 785 18 487
5005 -13.588033847576966 -2.0174327994893764 31.527278015107846 255 255 255 1.0 17 786 18 488
5006 -0.6831513022159325 -2.9610356571034373 25.62672373916568 255 255 255 1.0 17 787 18 489
5007 -13.010285716843509 -1.889964049870798 30.196351520378727 255 255 255 1.0 17 788 18 490
5008 -0.623525790184574 -3.3364765683494215 28.333655181037432 255 255 255 1.0 17 789 18 491
5009 -7.212327213334995 -2.894088291916698 31.768890626247273 255 255 255 1.0 17 790 18 492
5010 -2.610397433552524 -3.23296171093726 29.648493274490285 255 255 255 1.0 17 791 18 493
5011 -2.8095841330716476 -3.0907220794823043 28.861835676483015 255 255 255 1.0 17 792 18 494
5012 -0.7129546524637085 -3.4623343127443524 29.391535243537323 255 255 255 1.0 17 793 18 495
5013 -7.750037079169086 -2.8243934991496826 31.91513311851273 255 255 255 1.0 17 794 18 496
5014 -7.326640434469676 -2.853112717270764 31.809112345086973 255 255 255 1.0 17 795 18 497
5015 -6.698670994062595 -2.9206736436989793 31.561058423411758 255 255 255 1.0 17 796 18 498
5016 -1.2349795554405436 -3.420252998744909 29.71573221048734 255 255 255 1.0 17 797 18 499
5017 -0.8890919308175258 -3.2795888973847265 28.513655594862147 255 255 255 1.0 17 798 18 500
5018 -10.937185810266051 -2.346747211403792 31.905095335608724 255 255 255 1.0 17 799 18 501
5019 -10.279134595369518 -2.316452061970638 31.053642174575202 255 255 255 1.0 17 800 18 502
5020 -6.709019905043666 -2.7598227170205045 30.76977618040586 255 255 255 1.0 17 801 18 503
5021 -17.385814800486187 -1.2464043910380311 30.776467703891615 255 255 255 1.0 17 802 18 504
5022 -17.112374334439743 -1.3742174578897408 31.40871516465967 255 255 255 1.0 17 803 18 505
5023 -11.304239447681125 -2.275473550403367 31.967357462804568 255 255 255 1.0 17 804 18 506
5024 -11.190681726282985 -2.2887302000197267 31.949393375785615 255 255 255 1.0 17 805 18 507
5025 -9.849537841637364 -2.438636974337445 31.690533254551877 255 255 255 1.0 17 806 18 508
5026 -4.8654463970339235 -3.0074842877037633 30.810946786029618 255 255 255 1.0 17 807 18 509
5027 -4.3647658638824405 -2.889589779897996 29.705232646952375 255 255 255 1.0 17 808 18 510
5028 -0.22783037678540274 -3.22005917543866 27.983060764072217 255 255 255 1.0 17 809 18 511
5029 -0.5576152237991586 -3.0740674582607417 27.274728206402127 255 255 255 1.0 17 810 18 512
5030 -7.519591370719296 -2.491536144485102 30.294053882004874 255 255 255 1.0 17 811 18 513
5031 -0.2728161810712461 -3.052359381680932 27.04866048928766 255 255 255 1.0 17 812 18 514
5032 -5.915820809324733 -3.0884884067071 33.09650932930797 255 255 255 1.0 17 813 18 515
5033 -2.9260844467741536 -3.0426865769212217 29.812165698825385 255 255 255 1.0 17 814 18 516
5034 1.4555606042211342 -3.148670601176182 26.559809499863338 255 255 255 1.0 17 815 18 517
5035 -14.514154933553487 -1.6122963116461217 31.581383497616983 255 255 255 1.0 17 816 18 518
5036 -13.98102853690462 -1.88569970539991 32.9513975433041 255 255 255 1.0 17 817 18 519
5037 -5.374541178243436 -2.6693980731472715 30.20041349247856 255 255 255 1.0 17 818 18 520
5038 -8.787896232579508 -2.2418137461261316 30.687335982736556 255 255 255 1.0 17 819 18 521
5039 -2.016068899563769 -3.100462413293337 30.2388749579867 255 255 255 1.0 17 820 18 522
5040 -2.0157825521067294 -2.8444247171683643 28.343304103483522 255 255 255 1.0 17 821 18 523
5041 -2.3722740874132726 -2.7101019759051646 27.70720971215916 255 255 255 1.0 17 822 18 524
5042 -17.76748543693854 -1.153950830775038 31.941046902617575 255 255 255 1.0 17 823 18 525
5043 -11.326041302153165 -1.8468212033892049 30.618291638148715 255 255 255 1.0 17 824 18 526
5044 -7.806710425594349 -2.2933675702907235 30.40491412593697 255 255 255 1.0 17 825 18 527
5045 -1.1555876264582075 -3.110876473129851 29.6853297521867 255 255 255 1.0 17 826 18 528
5046 -13.303200747811026 -1.8726713074577832 32.91981895533724 255 255 255 1.0 17 827 18 529
5047 -12.456932171456938 -1.5279679390054022 29.566180598782662 255 255 255 1.0 17 828 18 530
5048 -11.36775055437133 -2.0104549841850945 31.994875218486264 255 255 255 1.0 17 829 18 531
5049 -8.03596336611207 -1.9691614656679681 28.40858618497238 255 255 255 1.0 17 830 18 532
5050 -9.269728801183026 -2.1960947807343585 31.598069405074348 255 255 255 1.0 17 831 18 533
5051 -4.489321976086942 -2.9766793677774714 32.53984903379351 255 255 255 1.0 17 832 18 534
5052 -1.169303740222619 -2.9056515280348587 28.7387153003001 255 255 255 1.0 17 833 18 535
5053 -0.26072830737612007 -3.07349388154398 29.089850879450516 255 255 255 1.0 17 834 18 536
5054 -0.5163825210117685 -2.803317762192423 27.293837182507943 255 255 255 1.0 17 835 18 537
5055 -15.384610849873727 -1.4172028660172447 32.21474006337073 255 255 255 1.0 17 836 18 538
5056 -3.1387131222004236 -2.7550028765508183 29.953070794352914 255 255 255 1.0 17 837 18 539
5057 -16.90534326947508 -1.001695965929429 30.860786101969293 255 255 255 1.0 17 838 18 540
5058 -15.98746575292537 -0.9870720363596862 29.798140014476488 255 255 255 1.0 17 839 18 541
5059 -13.291614803720195 -1.8462009385192608 33.71567010285913 255 255 255 1.0 17 840 18 542
5060 -3.3160493880863724 -2.598632918906503 29.160910108899643 255 255 255 1.0 17 841 18 543
5061 -16.575942778369516 -1.1933215208943448 32.119175437723015 255 255 255 1.0 17 842 18 544
5062 -8.958768527891985 -2.1964223319536043 32.327040548430574 255 255 255 1.0 17 843 18 545
5063 -5.974458854878403 -2.5800258765675026 32.25304960124309 255 255 255 1.0 17 844 18 546
5064 0.005476148058473454 -2.450958250435817 25.01132674605979 255 255 255 1.0 17 845 18 547
5065 -17.55508408204277 -0.9164179758020079 31.356797690520864 255 255 255 1.0 17 846 18 548
5066 -15.563565507944945 -1.332757381563426 32.92381533204169 255 255 255 1.0 17 847 18 549
5067 -9.682938060770763 -1.5341066038725764 28.35884230078048 255 255 255 1.0 17 848 18 550
5068 -5.962815718955849 -2.454476588047537 32.25769289648843 255 255 255 1.0 17 849 18 551
5069 -1.5058476471392221 -2.628539822025854 28.95590581830187 255 255 255 1.0 17 850 18 552
5070 -17.86356452719237 -0.7949591389898719 31.932505581141825 255 255 255 1.0 17 851 18 553
5071 -10.016298204440119 -1.6692099999126861 31.069252560113767 255 255 255 1.0 17 852 18 554
5072 -9.077227466769545 -1.874852999068849 31.546197765800244 255 255 255 1.0 17 853 18 555
5073 -7.302772141891684 -2.1351452778771876 31.822528191792152 255 255 255 1.0 17 854 18 556
5074 -17.544056683975366 -0.7439816344069614 31.37146724492611 255 255 255 1.0 17 855 18 557
5075 -16.788213862976992 -0.8423460564315975 31.495317378281108 255 255 255 1.0 17 856 18 558
5076 -18.70642445680462 -0.5439860843320046 31.13957947248884 255 255 255 1.0 17 857 18 559
5077 -14.587570690431173 -1.3563622743669963 33.732168295418994 255 255 255 1.0 17 858 18 560
5078 -4.548835870732141 -1.916803820797449 27.488655626576946 255 255 255 1.0 17 859 18 561
5079 -16.448629829619083 -0.8492266688404404 31.515959080132745 255 255 255 1.0 17 860 18 562
5080 -8.37124811309442 -1.9343287518451677 32.18552869135177 255 255 255 1.0 17 861 18 563
5081 -17.860429170623405 -0.6231325920866461 31.32234576812546 255 255 255 1.0 17 862 18 564
5082 -17.513114406574484 -0.6385132348455878 31.402633782216824 255 255 255 1.0 17 863 18 565
5083 -17.25643592293242 -0.6751433613503875 31.441983121992365 255 255 255 1.0 17 864 18 566
5084 -16.78139986924167 -0.7417152807368032 31.5040361013856 255 255 255 1.0 17 865 18 567
5085 -17.42419572451287 -0.4823657506069365 30.243340304000082 255 255 255 1.0 17 866 18 568
5086 -17.599327795880633 -0.5265977504113253 31.396418643646236 255 255 255 1.0 17 867 18 569
5087 -17.470262577123286 -0.613043909638972 32.04367864540759 255 255 255 1.0 17 868 18 570
5088 -9.366881022646421 -1.5013557153059705 30.893351023426458 255 255 255 1.0 17 869 18 571
5089 -6.332896549378798 -1.591348970680037 28.417016116675363 255 255 255 1.0 17 870 18 572
5090 -4.493249578181275 -2.0212047022144146 30.706780055880657 255 255 255 1.0 17 871 18 573
5091 -17.273480507396272 -0.5635876943177891 32.08286909744098 255 255 255 1.0 17 872 18 574
5092 -16.69311956503613 -0.4505993260988454 30.346243109437275 255 255 255 1.0 17 873 18 575
5093 -4.324389415743023 -2.041712413955589 31.600171821588965 255 255 255 1.0 17 874 18 576
5094 -16.86419184779384 -0.5124368465089992 31.491402244840035 255 255 255 1.0 17 875 18 577
5095 -15.700808299408205 -0.7315636147137076 32.24310915497524 255 255 255 1.0 17 876 18 578
5096 -15.096483990794942 -0.9284646249426176 33.707927455723265 255 255 255 1.0 17 877 18 579
5097 -12.6288502470296 -0.9308740831656723 30.846174701468772 255 255 255 1.0 17 878 18 580
5098 -12.522927116329111 -0.9423048419985761 30.833203067861266 255 255 255 1.0 17 879 18 581
5099 -17.290891830160657 -0.45807595382843386 32.08843557252698 255 255 255 1.0 17 880 18 582
5100 -16.383412782189055 -0.5900318735413558 32.187592676384675 255 255 255 1.0 17 881 18 583
5101 -18.527067483907665 -0.09436871215392605 30.07919038557684 255 255 255 1.0 17 882 18 584
5102 -3.0139152031981773 -1.744950142720778 28.206027270886526 255 255 255 1.0 17 883 18 585
5103 -15.534473554729733 -0.6342385493554266 32.28523790066362 255 255 255 1.0 17 884 18 586
5104 -15.1945771884133 -0.61063175671095 31.641436918171873 255 255 255 1.0 17 885 18 587
5105 -6.150922255123833 -1.441079437206651 29.047280585301458 255 255 255 1.0 17 886 18 588
5106 -14.759424377464281 -0.6474042183391077 31.62691908234017 255 255 255 1.0 17 887 18 589
5107 -13.58140029113015 -0.6693970349460772 30.975576291922064 255 255 255 1.0 17 888 18 590
5108 -8.33036271205792 -1.1177555853276697 29.23229501380433 255 255 255 1.0 17 889 18 591
5109 -17.474461960179607 -0.3046242802064288 32.06808926723308 255 255 255 1.0 17 890 18 592
5110 -13.56565648567231 -0.7198099581054265 31.620019968179317 255 255 255 1.0 17 891 18 593
5111 -13.028031050348105 -0.7791113387543824 31.581224780454754 255 255 255 1.0 17 892 18 594
5112 -17.180810643002804 -0.2110317539675053 30.86642462230771 255 255 255 1.0 17 893 18 595
5113 -0.6080549635878465 -1.995900332203276 29.42096482867503 255 255 255 1.0 17 894 18 596
5114 -14.899593699682216 -0.5873643028506434 32.297635822905676 255 255 255 1.0 17 895 18 597
5115 -0.8730996535916496 -1.9640778216522086 29.577884408591054 255 255 255 1.0 17 896 18 598
5116 -14.791489713814233 -0.5728758668170391 32.301940846893785 255 255 255 1.0 17 897 18 599
5117 -13.471078061339854 -0.5879916468445047 30.96802555193641 255 255 255 1.0 17 898 18 600
5118 -6.006912464228115 -1.3535815746816067 29.755039533027606 255 255 255 1.0 17 899 18 601
5119 -13.370262893942385 -0.5835423183265858 30.939244064790877 255 255 255 1.0 17 900 18 602
5120 -10.036084235243841 -1.1981680251784466 33.42331214537668 255 255 255 1.0 17 901 18 603
5121 -10.348324901695234 -0.9409553098822244 31.18466241826346 255 255 255 1.0 17 902 18 604
5122 -9.058846290049463 -1.1295196234252964 31.619864051826248 255 255 255 1.0 17 903 18 605
5123 -7.131896997063217 -1.3726649645476225 31.849793895805153 255 255 255 1.0 17 904 18 606
5124 -4.804010665998824 -1.142129880121908 26.280882429998766 255 255 255 1.0 17 905 18 607
5125 -6.355633765332124 -1.4182862441463686 31.541689552505364 255 255 255 1.0 17 906 18 608
5126 -17.333261527370162 -0.06883794418893928 30.855237183372427 255 255 255 1.0 17 907 18 609
5127 -16.563684840028593 -0.2773580565270739 32.18891561688955 255 255 255 1.0 17 908 18 610
5128 -10.905638607296549 -1.1266174277499714 34.42180972900588 255 255 255 1.0 17 909 18 611
5129 -11.262543082301423 -0.8603482210183117 32.085777843483356 255 255 255 1.0 17 910 18 612
5130 -0.5676125068969773 -1.7490957685212571 28.380437247416747 255 255 255 1.0 17 911 18 613
5131 -14.626000964004035 -0.3663829759081625 31.008750445733163 255 255 255 1.0 17 912 18 614
5132 -7.120478860344146 -1.22057968192001 30.996550403222077 255 255 255 1.0 17 913 18 615
5133 -5.98335151226578 -1.2269008607106369 29.77902551699478 255 255 255 1.0 17 914 18 616
5134 -6.195631041749274 -1.1817805032473627 29.872223975017747 255 255 255 1.0 17 915 18 617
5135 0.1607111227859905 -1.812282693695861 28.857119591314262 255 255 255 1.0 17 916 18 618
5136 -0.1251981111452761 -1.7084422907508094 28.041510364555624 255 255 255 1.0 17 917 18 619
5137 -15.552901917324412 -0.252248473519759 31.652401815629524 255 255 255 1.0 17 918 18 620
5138 -5.788321072732767 -1.1541322138356558 29.698740434093395 255 255 255 1.0 17 919 18 621
5139 -3.475787865702047 -1.3847691207691688 29.362252910469014 255 255 255 1.0 17 920 18 622
5140 -16.757973702015587 -0.04502319444850297 31.568693441951915 255 255 255 1.0 17 921 18 623
5141 -0.7826335849481394 -1.5726738291666347 28.563620391489735 255 255 255 1.0 17 922 18 624
5142 -1.1482885496980826 -1.6349727787959076 29.791363609845774 255 255 255 1.0 17 923 18 625
5143 -8.545195473307594 -0.9306199643547602 32.314912000282945 255 255 255 1.0 17 924 18 626
5144 -5.772901500217804 -1.024889257863171 29.708338689872182 255 255 255 1.0 17 925 18 627
5145 -4.465176673227856 -1.2703527499756522 30.77667290335524 255 255 255 1.0 17 926 18 628
5146 0.12048354991469282 -1.5508912587926773 27.825913295671196 255 255 255 1.0 17 927 18 629
5147 -17.259438542081607 0.043676278601956026 32.11025727440004 255 255 255 1.0 17 928 18 630
5148 -9.235631114633604 -0.6717759671998735 30.222337325233806 255 255 255 1.0 17 929 18 631
5149 -8.92139055223833 -0.7109350290098082 30.10609534016194 255 255 255 1.0 17 930 18 632
5150 -0.34809422668950935 -1.5692485001075143 29.262281934413366 255 255 255 1.0 17 931 18 633
5151 -11.727673912668552 -0.42773127727800075 30.757874389135257 255 255 255 1.0 17 932 18 634
5152 -1.2746584926405977 -1.333697969623039 27.961956026696363 255 255 255 1.0 17 933 18 635
5153 -10.786280888423692 -0.4259811933335824 29.950928905213345 255 255 255 1.0 17 934 18 636
5154 -9.138440960191684 -0.45992039164808335 28.258548446648252 255 255 255 1.0 17 935 18 637
5155 -5.358454079957492 -1.1125203776348527 31.19287928543796 255 255 255 1.0 17 936 18 638
5156 -4.531153281814535 -1.090133606438969 29.94765924790731 255 255 255 1.0 17 937 18 639
5157 -4.424065234377057 -1.0975614949764856 29.893767866824472 255 255 255 1.0 17 938 18 640
5158 -7.317479158477497 -0.8765981343562047 31.089116970646593 255 255 255 1.0 17 939 18 641
5159 -5.115788847708433 -1.0458681303622162 30.19433838735245 255 255 255 1.0 17 940 18 642
5160 -11.441056205513418 -0.34822026091965125 30.74704443204024 255 255 255 1.0 17 941 18 643
5161 -5.182062113312954 -0.9358901779077893 29.434915723053965 255 255 255 1.0 17 942 18 644
5162 -14.209465684578511 0.11045333974421458 28.765036370521674 255 255 255 1.0 17 943 18 645
5163 -0.48452618249141544 -1.3282819196954498 28.3465677519278 255 255 255 1.0 17 944 18 646
5164 -14.862795867369602 0.12163877627453636 29.88288663784429 255 255 255 1.0 17 945 18 647
5165 -10.233185282499806 -0.3796223680088459 29.804441421636447 255 255 255 1.0 17 946 18 648
5166 -10.127926943273648 -0.3888974464615375 29.777890858368306 255 255 255 1.0 17 947 18 649
5167 -10.783211033034057 -0.303637596862854 29.936141174467085 255 255 255 1.0 17 948 18 650
5168 -9.145002014792883 -0.4681204013321904 30.18661424021411 255 255 255 1.0 17 949 18 651
5169 -8.445969410288646 -0.6341073491596642 31.46125542988112 255 255 255 1.0 17 950 18 652
5170 -8.567444170966604 -0.5043124058021123 30.036117292362615 255 255 255 1.0 17 951 18 653
5171 -6.12182480918998 -0.8212530321131456 30.6457482250785 255 255 255 1.0 17 952 18 654
5172 -4.094371767114362 -0.9543987047152673 29.726003895477838 255 255 255 1.0 17 953 18 655
5173 0.7619751856673764 -1.3573892845360696 28.41184725894691 255 255 255 1.0 17 954 18 656
5174 -13.713786750701747 -0.005084184277068139 31.02484253942957 255 255 255 1.0 17 955 18 657
5175 -4.81387548063932 -0.8744151033308781 30.09131398063621 255 255 255 1.0 17 956 18 658
5176 -4.044044530313008 -0.8520279322229504 28.835100377802036 255 255 255 1.0 17 957 18 659
5177 -1.0072814780682655 -1.1620379188417111 28.71594559787455 255 255 255 1.0 17 958 18 660
5178 -11.279565208056312 -0.2932851946132458 32.10227110243064 255 255 255 1.0 17 959 18 661
5179 -5.475499666625005 -0.8254014156965993 31.26319814545746 255 255 255 1.0 17 960 18 662
5180 -2.39740810959466 -0.9734531761473723 28.746131476947973 255 255 255 1.0 17 961 18 663
5181 -9.952612499819516 -0.1740089412874374 29.13497792893431 255 255 255 1.0 17 962 18 664
5182 1.4709486085010433 -1.2047140411436787 26.677543771263338 255 255 255 1.0 17 963 18 665
5183 -12.565429274371597 -0.06645572390774863 31.565541739714412 255 255 255 1.0 17 964 18 666
5184 -12.201724541657587 -0.044395205169682025 30.876568489822674 255 255 255 1.0 17 965 18 667
5185 -7.731759082254957 -0.7043159825320343 33.88157902533554 255 255 255 1.0 17 966 18 668
5186 -1.2410403628110627 -1.0574773885299973 28.88843174231444 255 255 255 1.0 17 967 18 669
5187 -8.012753871591615 -0.4412691436982137 30.57117520235819 255 255 255 1.0 17 968 18 670
5188 -8.941317899750064 -0.17719256270968559 28.20554147775841 255 255 255 1.0 17 969 18 671
5189 -5.722947607034328 -0.613584060986845 30.5293540804888 255 255 255 1.0 17 970 18 672
5190 -13.283560318953683 0.06727128271434593 32.36762207913407 255 255 255 1.0 17 971 18 673
5191 -6.422217632068718 -0.5452818201540254 30.811592381227012 255 255 255 1.0 17 972 18 674
5192 -2.3987417530641895 -0.8374580914019725 28.730721715469258 255 255 255 1.0 17 973 18 675
5193 -3.9270677190369025 -0.6058295595498816 27.981703960339136 255 255 255 1.0 17 974 18 676
5194 -1.0339874276915129 -0.7752873089161718 26.006962433640833 255 255 255 1.0 17 975 18 677
5195 -17.16897067948133 0.6767060872080247 29.288382276707857 255 255 255 1.0 17 976 18 678
5196 -10.149983877698997 -0.10339691599903537 30.470684679630065 255 255 255 1.0 17 977 18 679
5197 -4.542703061464902 -0.49030651954380833 27.57372668891511 255 255 255 1.0 17 978 18 680
5198 -1.4725536229703065 -0.8911147466161148 29.05957517493155 255 255 255 1.0 17 979 18 681
5199 -14.328388743143302 0.4036547646367979 29.888898394489697 255 255 255 1.0 17 980 18 682
5200 -9.28049668895427 -0.14909582572926816 30.245631259931297 255 255 255 1.0 17 981 18 683
5201 -6.3018420790268115 -0.42940340215124984 29.9416523758632 255 255 255 1.0 17 982 18 684
5202 -13.314747490851708 0.35431180950202235 29.228166660297607 255 255 255 1.0 17 983 18 685
5203 -8.88569642422089 -0.11303202705520518 29.44792547678696 255 255 255 1.0 17 984 18 686
5204 -13.135660613295805 0.13828442611271005 33.09189068473595 255 255 255 1.0 17 985 18 687
5205 -10.079784868723179 -0.11014288490410015 31.901451433111774 255 255 255 1.0 17 986 18 688
5206 -5.604218931036311 -0.6139923822914352 33.20699596782066 255 255 255 1.0 17 987 18 689
5207 -4.374921747951712 -0.6493925535581706 31.713409043672062 255 255 255 1.0 17 988 18 690
5208 -14.90352087024372 0.3810328788124689 32.39620434810108 255 255 255 1.0 17 989 18 691
5209 -1.8938951196658294 -0.6110506085513426 27.550731569585725 255 255 255 1.0 17 990 18 692
5210 -14.975687084870296 0.32231143633556514 33.813984804744436 255 255 255 1.0 17 991 18 693
5211 -12.850201507858252 0.3341755182964719 30.35343775985289 255 255 255 1.0 17 992 18 694
5212 -5.204230196327991 -0.5389290698246176 32.05571532687934 255 255 255 1.0 17 993 18 695
5213 -3.24852429723598 -0.6110603151018613 30.19613109199572 255 255 255 1.0 17 994 18 696
5214 -9.307987403107315 -0.06028675927414924 31.76815156995435 255 255 255 1.0 17 995 18 697
5215 -7.0975728348646445 -0.3974506331069195 33.72634796490667 255 255 255 1.0 17 996 18 698
5216 -1.283983212226151 -0.7184741996187546 28.943193243844043 255 255 255 1.0 17 997 18 699
5217 -2.9255447342833585 -0.3875335578935511 25.849716878204852 255 255 255 1.0 17 998 18 700
5218 0.5309575548799075 -0.8769762343598485 28.60041659374757 255 255 255 1.0 17 999 18 701
5219 -16.718969893168097 0.7137619326459907 31.01180581250046 255 255 255 1.0 17 1000 18 702
5220 -16.635749535514332 0.7363794699224356 30.438383317568263 255 255 255 1.0 17 1001 18 703
5221 -16.543233909104334 0.727024175331376 30.445550708135166 255 255 255 1.0 17 1002 18 704
5222 -16.32062418931663 0.6547474301696874 31.6371514022322 255 255 255 1.0 17 1003 18 705
5223 -9.894091074282008 0.07298282213953503 31.155292034639018 255 255 255 1.0 17 1004 18 706
5224 -8.784148482150076 -0.04434441155795323 31.634240265866442 255 255 255 1.0 17 1005 18 707
5225 -3.6370235481120274 -0.39985116099459006 28.661975418436228 255 255 255 1.0 17 1006 18 708
5226 -15.515736610477632 0.6121792100154763 31.719876212401747 255 255 255 1.0 17 1007 18 709
5227 0.3008663751372775 -0.687571318223672 27.771813752960707 255 255 255 1.0 17 1008 18 710
5228 -14.063288081353923 0.5322011943426248 31.080574580696627 255 255 255 1.0 17 1009 18 711
5229 -13.82099718883054 0.47693698201247464 31.71923482331997 255 255 255 1.0 17 1010 18 712
5230 -1.2482422274070402 -0.5212880641850991 28.00253588948495 255 255 255 1.0 17 1011 18 713
5231 -16.676722392926575 0.7917910324416146 31.647769178741182 255 255 255 1.0 17 1012 18 714
5232 -13.01020996186006 0.3461708949166695 33.071469501602984 255 255 255 1.0 17 1013 18 715
5233 -13.430673967464584 0.5313395481525595 30.41760110330039 255 255 255 1.0 17 1014 18 716
5234 -12.658418957417721 0.3980983176664803 31.63413335834504 255 255 255 1.0 17 1015 18 717
5235 -12.698897666240383 0.43461686078055933 30.970705897412465 255 255 255 1.0 17 1016 18 718
5236 -3.4075973947231772 -0.42857613624466145 30.2693964056378 255 255 255 1.0 17 1017 18 719
5237 -12.772668497310285 0.42360377476605543 31.619789090112956 255 255 255 1.0 17 1018 18 720
5238 -3.988509580422399 -0.4033482848151351 31.518876130149703 255 255 255 1.0 17 1019 18 721
5239 -11.090766070550222 0.30401346014319397 31.38778085256283 255 255 255 1.0 17 1020 18 722
5240 -14.947459548784737 0.6783512174694922 31.717757213610543 255 255 255 1.0 17 1021 18 723
5241 -14.183937120820017 0.6774002476588996 30.478624151578106 255 255 255 1.0 17 1022 18 724
5242 -15.81584124980871 0.8272879786077649 31.092141437935812 255 255 255 1.0 17 1023 18 725
5243 -15.717782015662825 0.8179834728455568 31.096423447475964 255 255 255 1.0 17 1024 18 726
5244 -9.65294984508377 0.2729770586596533 30.373417649286665 255 255 255 1.0 17 1025 18 727
5245 -8.350543525720713 0.02512725616078175 33.15234185456709 255 255 255 1.0 17 1026 18 728
5246 -9.273351221836942 0.24232511600313866 30.269733530433303 255 255 255 1.0 17 1027 18 729
5247 -13.978393428867872 0.5594392880891766 33.90892016189106 255 255 255 1.0 17 1028 18 730
5248 -17.32924304914151 1.0351880531423718 30.971967276264284 255 255 255 1.0 17 1029 18 731
5249 -14.480287323198764 0.6814906432778602 33.15962320730086 255 255 255 1.0 17 1030 18 732
5250 -11.526019128907615 0.5242522689070631 30.16141040329442 255 255 255 1.0 17 1031 18 733
5251 -11.244770336762215 0.5153412878434154 29.46096910597548 255 255 255 1.0 17 1032 18 734
5252 -6.514423932020405 -0.05650876799235726 32.59254907041843 255 255 255 1.0 17 1033 18 735
5253 -6.393580035955172 -0.06577821263169958 32.549482046983925 255 255 255 1.0 17 1034 18 736
5254 -5.621399675492776 -0.08489176319338688 31.34961244793186 255 255 255 1.0 17 1035 18 737
5255 -5.829295820340685 0.0028110206625206876 29.769778779425526 255 255 255 1.0 17 1036 18 738
5256 -1.3233627739451708 -0.27036480263162116 27.15888653844171 255 255 255 1.0 17 1037 18 739
5257 -13.86573639107997 0.726348813808541 31.085471692798638 255 255 255 1.0 17 1038 18 740
5258 -13.214052786032411 0.6120657420704322 32.39486882274651 255 255 255 1.0 17 1039 18 741
5259 -12.571286784609027 0.5553925127716623 32.34516548585635 255 255 255 1.0 17 1040 18 742
5260 -12.63782449802346 0.6062514964527788 30.950386931654045 255 255 255 1.0 17 1041 18 743
5261 -13.016330650457904 0.7615632557302259 28.6769444298827 255 255 255 1.0 17 1042 18 744
5262 0.32985875569689094 -0.4161079174059598 27.736780790939623 255 255 255 1.0 17 1043 18 745
5263 -10.730251740306688 0.5391876698583676 30.002655582457596 255 255 255 1.0 17 1044 18 746
5264 -10.031903545486333 0.42811146614271856 31.211882728055922 255 255 255 1.0 17 1045 18 747
5265 -2.9250573146065277 0.06683373077092596 23.8147556958996 255 255 255 1.0 17 1046 18 748
5266 -16.269597306485984 1.0111540959936862 31.049372300616252 255 255 255 1.0 17 1047 18 749
5267 -15.516670360590238 0.9985902442367245 29.948291388401753 255 255 255 1.0 17 1048 18 750
5268 -7.202662961034885 0.22170937317474443 30.33719390057814 255 255 255 1.0 17 1049 18 751
5269 -17.61106284115429 1.1397175898303307 31.49814858020818 255 255 255 1.0 17 1050 18 752
5270 -15.368412823539465 1.0302921658228428 29.40608438113447 255 255 255 1.0 17 1051 18 753
5271 -14.506800774543905 0.8778254517900936 31.7758055691866 255 255 255 1.0 17 1052 18 754
5272 -13.204378967693335 0.7505888665325711 31.705727682663532 255 255 255 1.0 17 1053 18 755
5273 -11.438324668653395 0.6620972890886975 29.509640383407092 255 255 255 1.0 17 1054 18 756
5274 1.1281566867455906 -0.2927474960077497 25.0016284634696 255 255 255 1.0 17 1055 18 757
5275 -17.5165693753476 1.1558493319074694 31.515574742516666 255 255 255 1.0 17 1056 18 758
5276 -13.791743498597622 0.8894425881933001 30.445807221856978 255 255 255 1.0 17 1057 18 759
5277 -0.5016767744166416 -0.23748239240502397 29.47160855249908 255 255 255 1.0 17 1058 18 760
5278 -9.533368658692728 0.46504954444197066 33.501477704198166 255 255 255 1.0 17 1059 18 761
5279 -16.62628134958323 1.1736478031379924 31.68509857484125 255 255 255 1.0 17 1060 18 762
5280 0.1011953570964705 -0.15725909653019243 26.941369215861815 255 255 255 1.0 17 1061 18 763
5281 -9.786101139643623 0.6233467367532408 31.178127353320328 255 255 255 1.0 17 1062 18 764
5282 -7.2747322966738635 0.32046867911126586 32.87112710706238 255 255 255 1.0 17 1063 18 765
5283 1.3257315496298492 -0.18387387374499858 25.83132686165543 255 255 255 1.0 17 1064 18 766
5284 -12.189310369895 0.8603118719390865 30.269283751163552 255 255 255 1.0 17 1065 18 767
5285 -11.582358916520912 0.7687947580219165 31.499911802709512 255 255 255 1.0 17 1066 18 768
5286 -1.4108208406284037 0.03729914375652326 27.23977237454174 255 255 255 1.0 17 1067 18 769
5287 -6.116560143466621 0.2965995399142369 32.47755269327676 255 255 255 1.0 17 1068 18 770
5288 0.8346745440049216 -0.16219882220899665 28.425145233001736 255 255 255 1.0 17 1069 18 771
5289 -16.94252887401613 1.3271011006221523 30.452092060525185 255 255 255 1.0 17 1070 18 772
5290 -6.222222328406074 0.402346701022933 30.799274629288693 255 255 255 1.0 17 1071 18 773
5291 -17.74177474934795 1.3947735579841567 30.895393478286998 255 255 255 1.0 17 1072 18 774
5292 -13.878983054877267 1.0784166599992153 30.46420905406339 255 255 255 1.0 17 1073 18 775
5293 -10.034541765556343 0.7772200225569597 30.536348157800216 255 255 255 1.0 17 1074 18 776
5294 -3.1891453682996764 0.20257048884893078 29.283733819181585 255 255 255 1.0 17 1075 18 777
5295 -17.625956336661712 1.4203438984271521 30.94419388552281 255 255 255 1.0 17 1076 18 778
5296 -13.562812895816421 1.094540041206433 29.84814371970778 255 255 255 1.0 17 1077 18 779
5297 -10.480023109741595 0.801850185340978 32.08671070669017 255 255 255 1.0 17 1078 18 780
5298 -9.646651583883683 0.7796585996624734 29.751136335289484 255 255 255 1.0 17 1079 18 781
5299 -11.567746878944535 0.9600646497271256 29.55396039420325 255 255 255 1.0 17 1080 18 782
5300 -10.301447348632907 0.8538206320050941 30.60436133052651 255 255 255 1.0 17 1081 18 783
5301 -12.206535011386416 0.9097880285747825 34.6939623008114 255 255 255 1.0 17 1082 18 784
5302 -10.129007951693714 0.8331996854680637 32.019679050344536 255 255 255 1.0 17 1083 18 785
5303 -16.40655371370888 1.3919319931781606 30.478249084660593 255 255 255 1.0 17 1084 18 786
5304 -17.56416726536112 1.5130560310445365 31.533548600825178 255 255 255 1.0 17 1085 18 787
5305 -12.507885691334954 1.1247753044867443 30.331709240217727 255 255 255 1.0 17 1086 18 788
5306 -10.07241953075262 0.9497053953857895 29.21097511891592 255 255 255 1.0 17 1087 18 789
5307 -17.738567665053505 1.564505550028411 32.18665065531826 255 255 255 1.0 17 1088 18 790
5308 -17.017738948557266 1.504111081826401 31.64772393011677 255 255 255 1.0 17 1089 18 791
5309 -13.11691078186079 1.2367887527102015 29.84450369032952 255 255 255 1.0 17 1090 18 792
5310 -10.781284453572683 1.0014839029015135 32.156708105131784 255 255 255 1.0 17 1091 18 793
5311 -3.50609060768441 0.375049418718808 32.34910990118733 255 255 255 1.0 17 1092 18 794
5312 -2.5080481479166874 0.3469298648361357 29.812845742557414 255 255 255 1.0 17 1093 18 795
5313 -1.8866407549543227 0.3537262911471149 28.50428582175595 255 255 255 1.0 17 1094 18 796
5314 -1.666450285191823 0.3284223893185819 27.42626398387035 255 255 255 1.0 17 1095 18 797
5315 -11.573672763386178 1.092119321748957 30.835546590076074 255 255 255 1.0 17 1096 18 798
5316 -1.3763827893384502 0.3199162709803983 28.125600964375778 255 255 255 1.0 17 1097 18 799
5317 1.5407881851805127 0.18638671753693498 26.704287925036297 255 255 255 1.0 17 1098 18 800
5318 -17.566774448928072 1.6411555467498629 32.20887505938939 255 255 255 1.0 17 1099 18 801
5319 -17.38482629204825 1.6345433495535315 30.96854860838714 255 255 255 1.0 17 1100 18 802
5320 -16.44574301908647 1.570240089078324 31.102774107660956 255 255 255 1.0 17 1101 18 803
5321 -15.518266182118788 1.5217603245197533 31.15684227117512 255 255 255 1.0 17 1102 18 804
5322 -10.785770682829993 1.145160086061769 31.41958320911124 255 255 255 1.0 17 1103 18 805
5323 -9.226720804471498 1.0020053632440533 31.787313723868273 255 255 255 1.0 17 1104 18 806
5324 -2.545521173072363 0.5617564146489811 28.061321198617215 255 255 255 1.0 17 1105 18 807
5325 -12.196688265834105 1.3177858588074358 30.971753410878602 255 255 255 1.0 17 1106 18 808
5326 -10.88650639362162 1.2258072932975428 33.79129027666423 255 255 255 1.0 17 1107 18 809
5327 -11.251393837428132 1.273994179078839 30.818969736300197 255 255 255 1.0 17 1108 18 810
5328 -17.534657988598227 1.7683985773521036 32.22513496809563 255 255 255 1.0 17 1109 18 811
5329 -15.510842494301802 1.6246763044626116 31.164724132934808 255 255 255 1.0 17 1110 18 812
5330 -11.277646139393607 1.294614239966012 33.03148416000325 255 255 255 1.0 17 1111 18 813
5331 -1.3503745140306924 0.5957738348203458 27.214145883942297 255 255 255 1.0 17 1112 18 814
5332 -15.153431002282028 1.692614711041034 30.58633438909565 255 255 255 1.0 17 1113 18 815
5333 -14.89005548445782 1.6770459482640816 30.00286754744459 255 255 255 1.0 17 1114 18 816
5334 -11.454711344004547 1.3919764429007753 33.874944989025124 255 255 255 1.0 17 1115 18 817
5335 -11.815502584243983 1.444649022488472 30.284793532632484 255 255 255 1.0 17 1116 18 818
5336 -10.858176366871259 1.3695160372349775 30.760660903896937 255 255 255 1.0 17 1117 18 819
