# 3D point list with one line of data per point:
#   POINT3D_ID, X, Y, Z, R, G, B, ERROR, TRACK[]
71 5.519415193062454 -1.3763916310653708 27.303505833050423 255 255 255 1.0 10 19 11 8
72 7.3084533306732515 0.12465244292346471 12.712432125550492 255 255 255 1.0 10 20 11 9
73 6.289662871197159 -3.4573214026886476 22.488645012918877 255 255 255 1.0 10 21 11 10
74 8.942705734054064 0.2381436175735269 11.360447291747715 255 255 255 1.0 10 22 11 11
75 6.1729649117078615 4.16774334940723 24.564638845994565 255 255 255 1.0 10 23 11 12
76 5.402918382621345 -1.6533385235604547 26.00393783863129 255 255 255 1.0 10 24 11 13
77 6.78474737274551 -0.8481100016888549 18.30176204005897 255 255 255 1.0 10 25 11 14
78 4.488285987012024 -2.082182296786793 29.215837399727352 255 255 255 1.0 10 26 11 15
79 8.056420042736963 0.1238280762638992 9.955877205034403 255 255 255 1.0 10 27 11 16
80 5.537524180581568 -0.25513526985916624 13.282455830024732 255 255 255 1.0 10 28 11 17
81 5.4635326565596 -1.3279495974014595 27.293397698842128 255 255 255 1.0 10 29 11 18
82 5.372253149270795 -0.95189099602345 20.97279220421066 255 255 255 1.0 10 30 11 19
83 4.705181541854382 -5.651583937655723 27.00476260518581 255 255 255 1.0 10 31 11 20
84 5.327713423188699 -1.30855374543947 25.932556156577128 255 255 255 1.0 10 32 11 21
85 9.137516787341434 -0.43076220753473565 11.57925110079913 255 255 255 1.0 10 33 11 22
86 6.0129856563861575 -4.687745399164273 26.168687432275814 255 255 255 1.0 11 23 12 0
87 6.631778975934338 -2.549723760076651 18.82152485250243 255 255 255 1.0 11 24 12 1
88 4.036162492643566 -4.287033409660378 25.142287214908478 255 255 255 1.0 11 25 12 2
89 3.247284230504968 -6.375304369117914 25.572703416415525 255 255 255 1.0 11 26 12 3
90 8.32715827771281 -4.566238330676728 27.027530662237897 255 255 255 1.0 11 27 12 4
91 8.060559429795402 -0.45555589796854046 11.312279686816666 255 255 255 1.0 11 28 12 5
92 5.613770891045293 -5.256591672283231 23.087713664854373 255 255 255 1.0 11 29 12 6
93 4.209404855041543 -4.2645135050128955 25.331940896516784 255 255 255 1.0 11 30 12 7
94 8.791794564195056 -3.302794074690005 23.950518042747632 255 255 255 1.0 11 31 12 8
95 6.338768641806848 -1.5014595020872716 24.526892785182675 255 255 255 1.0 11 32 12 9
96 6.5493616468894125 -2.637220189778771 18.734870599505438 255 255 255 1.0 11 33 12 10
97 8.932325524752471 -1.1483875479461167 12.250316087903226 255 255 255 1.0 11 34 12 11
98 9.498958014769325 0.12151719640625781 11.30005609309694 255 255 255 1.0 11 35 12 12
99 6.458428419360474 -4.348252858726652 26.655604901876043 255 255 255 1.0 12 13 13 0
100 5.680872760078502 -2.3788805974643257 22.220089004751927 255 255 255 1.0 12 14 13 1
101 0.4110442223695373 -1.6099610777068034 26.990474186013834 255 255 255 1.0 12 15 13 2
102 7.591671095282149 -0.008004726935839675 13.407154600460258 255 255 255 1.0 12 16 13 3
103 9.005556890317274 -1.0663141011300505 26.017326527866352 255 255 255 1.0 12 17 13 4
104 9.011735592607018 -3.08691835487506 22.64277711847176 255 255 255 1.0 12 18 13 5 14 0
105 9.113393158654214 7.206678232453262 29.167350844735203 255 255 255 1.0 12 19 13 6
106 6.722388758806179 -1.34766680843977 25.06143846865992 255 255 255 1.0 12 20 13 7
107 7.085317775677001 -5.0997899070477075 23.354844890809662 255 255 255 1.0 13 8 14 1
108 6.96366883080614 -1.4161553576490504 25.641672011672068 255 255 255 1.0 13 9 14 2
109 4.000401260414682 -0.9641448354457094 28.71026978836645 255 255 255 1.0 13 10 14 3
110 10.811857301391028 -0.5226474849959901 10.709696308219577 255 255 255 1.0 13 11 14 4
111 9.210969061983253 -1.4048266635504674 14.571267267221572 255 255 255 1.0 13 12 14 5
112 10.920117155922659 -0.9227710624924416 13.211455525704652 255 255 255 1.0 13 13 14 6
113 9.514603790220463 -2.7725596720435295 25.68748877294755 255 255 255 1.0 13 14 14 7
114 8.936657120425814 -4.747931986407759 28.10235913743618 255 255 255 1.0 13 15 14 8
115 9.481728619010983 -1.3980882909304215 13.646996799859267 255 255 255 1.0 13 16 14 9
116 10.629795222554131 -1.0989195469137931 13.143191119586085 255 255 255 1.0 13 17 14 10
117 7.582635234540453 -1.3375835112586871 26.732763342155202 255 255 255 1.0 14 11 15 0
118 7.90245644884931 -1.4190216161566342 26.893344004101046 255 255 255 1.0 14 12 15 1
119 7.332730360630419 -1.1795708007315178 26.564465496765322 255 255 255 1.0 14 13 15 2
120 6.536857470862925 -2.5788928825512625 29.743321037806293 255 255 255 1.0 14 14 15 3
121 7.579694593208416 -1.4824678352933576 26.93328068980841 255 255 255 1.0 14 15 15 4
122 3.1625946242538987 -1.3369512721088506 24.7034112629782 255 255 255 1.0 14 16 15 5
123 7.143122492588616 -1.4565504960711355 26.615348738492774 255 255 255 1.0 14 17 15 6
124 3.2216477769805922 -1.4095958417786576 30.537789702005416 255 255 255 1.0 14 18 15 7
125 10.357516677066146 -5.82695320687688 33.288547690113404 255 255 255 1.0 16 0 17 0
126 10.828061944744128 -1.4038713360727828 31.29938114860055 255 255 255 1.0 16 1 17 1
127 8.313999451975398 -3.8150375972744315 24.838605901317997 255 255 255 1.0 16 2 17 2
128 11.062781461373312 -5.269332230209338 33.69157561473898 255 255 255 1.0 16 3 17 3
129 3.2352532862074224 -1.7203455155255098 27.299216480874147 255 255 255 1.0 16 4 17 4
130 8.681861751234164 -1.8178734327139388 30.24163308924765 255 255 255 1.0 16 5 17 5
131 9.905454653149182 -1.1589012426985108 27.074786946992365 255 255 255 1.0 17 6 18 0
132 12.616786933385708 -0.3459595621918095 18.06532894762489 255 255 255 1.0 17 7 18 1
133 10.389401315294279 -0.8360967743682539 22.76377791786411 255 255 255 1.0 17 8 18 2
134 15.234791550953249 0.041918063695155584 14.34982154155771 255 255 255 1.0 17 9 18 3
135 5.479449220271665 -1.805537860076188 25.700628680752178 255 255 255 1.0 17 10 18 4
136 13.874830529170092 0.17477826376347794 12.738712188724831 255 255 255 1.0 17 11 18 5
137 15.25336655808774 7.004912412038853 30.438317863635525 255 255 255 1.0 18 6 19 0
138 7.782690848150844 7.634629942180371 33.178948313999406 255 255 255 1.0 19 1 20 0
139 7.390602717374557 7.653327260249795 33.88991218636827 255 255 255 1.0 19 2 20 1
140 4.945086521858885 7.318751020741687 32.564643563368435 255 255 255 1.0 19 3 20 2
141 6.714183844880394 7.623483234702348 32.547169661974145 255 255 255 1.0 19 4 20 3
142 5.551267723608863 7.490842543861009 31.68245189506845 255 255 255 1.0 19 5 20 4
143 6.52820727443677 7.569211332204259 32.50017649138884 255 255 255 1.0 19 6 20 5
144 3.6159862294248235 7.4081575274073606 31.587119807826017 255 255 255 1.0 19 7 20 6
145 6.543781448189678 7.522604748064865 32.724200543395405 255 255 255 1.0 19 8 20 7
146 6.570980222041246 7.4580109427051475 33.40915803734653 255 255 255 1.0 19 9 20 8
147 3.4778367136120254 7.371402299421066 31.416684668085534 255 255 255 1.0 19 10 20 9
148 6.928398971907439 7.345006281662294 33.21685975409897 255 255 255 1.0 19 11 20 10
149 4.715034464123149 7.363992298214757 31.988948151793423 255 255 255 1.0 19 12 20 11
150 6.192117615976883 7.566242833993652 32.24375213404573 255 255 255 1.0 19 13 20 12
151 3.303674210189181 7.352826781259583 30.880409944145622 255 255 255 1.0 19 14 20 13
152 5.768508912701289 7.272663346339996 33.136742805894954 255 255 255 1.0 19 15 20 14
153 8.928221022456938 7.35714545711008 34.628167275224335 255 255 255 1.0 19 16 20 15
154 3.2868317329674284 7.371462804007466 31.342897719946844 255 255 255 1.0 19 17 20 16
155 4.78357011679722 7.537240969082125 31.64673306072638 255 255 255 1.0 19 18 20 17
156 3.596170309137606 7.48481352199085 31.087871154093808 255 255 255 1.0 19 19 20 18
157 11.879665315421514 1.0807045857897384 26.30383308033537 255 255 255 1.0 19 20 20 19
158 6.27591204341071 7.648331154744913 32.527660989817086 255 255 255 1.0 19 21 20 20
159 7.743634366639133 7.6065334243297436 33.49441976619561 255 255 255 1.0 19 22 20 21
160 17.15176853508697 -1.1630230346877581 18.279491994380603 255 255 255 1.0 21 0 22 0
161 17.057227270620203 -1.155218386668994 18.2022073397158 255 255 255 1.0 21 1 22 1
162 14.601435548284453 -1.8674918849057232 20.191436186213867 255 255 255 1.0 21 2 22 2
163 16.098448941507716 6.706293698358123 28.94120444988819 255 255 255 1.0 21 3 22 3
164 12.095747928691774 -1.272106735261918 27.99375765096845 255 255 255 1.0 21 4 22 4
165 7.791796176809299 -1.0642944006073742 25.296439582901055 255 255 255 1.0 21 5 22 5
166 16.485031950359623 6.456675189063125 27.616064534438 255 255 255 1.0 22 6 23 0
167 11.923746241542913 6.2513057252615765 25.816097755284684 255 255 255 1.0 22 7 23 1
168 11.028487654730407 -4.088482484104615 28.68790086145445 255 255 255 1.0 23 2 24 0
169 13.411896814765976 -1.0049446906520563 27.931110141550118 255 255 255 1.0 23 3 24 1
170 17.085029597884283 -0.8837303330790027 29.533495248232605 255 255 255 1.0 23 4 24 2
171 15.283003280813606 -1.1486255393974472 28.804642878639186 255 255 255 1.0 23 5 24 3
172 16.527666476361585 -1.3537767186228922 18.824921278194502 255 255 255 1.0 23 6 24 4
173 13.784022655469931 -2.672261396570154 27.31353412517129 255 255 255 1.0 23 7 24 5
174 18.7523519252554 -0.8392675252091271 16.831388794179233 255 255 255 1.0 23 8 24 6
175 16.65456949057836 -0.03017489441664351 19.856598226355707 255 255 255 1.0 23 9 24 7
176 13.11876398142706 -1.0323159540202216 27.816023047627947 255 255 255 1.0 23 10 24 8
177 13.237469197360246 -1.1811976188902324 28.06552175110024 255 255 255 1.0 23 11 24 9
178 13.347521655350096 -0.9203127694636047 27.85801508184512 255 255 255 1.0 23 12 24 10
179 15.681553673645674 -1.8092309653145537 19.244032905589254 255 255 255 1.0 23 13 24 11
180 15.387342733965681 -0.7779854233206819 28.75490585054635 255 255 255 1.0 23 14 24 12
181 14.74312398565456 7.54454766837835 31.692317663386213 255 255 255 1.0 25 0 26 0
182 16.588874140154495 6.086352739849859 24.914237901769543 255 255 255 1.0 25 1 26 1
183 10.56440061187678 -1.154915685269089 26.699012464271696 255 255 255 1.0 26 2 27 0
184 10.54069132868837 -1.1545704996132233 26.658885824770564 255 255 255 1.0 26 3 27 1
185 14.823835246918874 -0.9925366904073787 28.43791618264395 255 255 255 1.0 26 4 27 2
186 15.307285981478522 -1.0965461986508667 28.734206036403247 255 255 255 1.0 26 5 27 3
187 17.958451360436023 -0.4038186141642774 25.59328629057844 255 255 255 1.0 26 6 27 4
188 16.954936803851147 -1.014550891511327 29.383709694905463 255 255 255 1.0 26 7 27 5
189 15.190835508668034 -1.0049116724849303 28.63873602106592 255 255 255 1.0 26 8 27 6
190 10.65374165496436 -1.0986656854201968 26.712900378233627 255 255 255 1.0 26 9 27 7
191 11.19916909482162 -1.1687457709775302 34.72436743943449 255 255 255 1.0 27 8 28 0
192 16.693221404074922 -0.8617321377707878 31.163747681151058 255 255 255 1.0 27 9 28 1
193 15.004596120222532 -1.1630339662603406 30.434053632925067 255 255 255 1.0 27 10 28 2
194 14.301996123513716 7.823345810520912 36.523934072549096 255 255 255 1.0 28 3 29 0
195 17.958822490450004 8.017646754071409 37.66596678196443 255 255 255 1.0 28 4 29 1
196 14.176131804748996 7.9692416832316715 36.105497016682875 255 255 255 1.0 28 5 29 2
197 18.851030907051584 8.160072585926011 38.49220833487816 255 255 255 1.0 28 6 29 3
198 10.823401125587624 7.7459053204406745 34.12902013515663 255 255 255 1.0 28 7 29 4
199 19.970627278579883 8.101443199928065 38.600111147287734 255 255 255 1.0 28 8 29 5
200 17.502897110361957 8.106607324511156 37.941787579277914 255 255 255 1.0 28 9 29 6
201 13.12157672907792 7.771616233637703 36.548351718610355 255 255 255 1.0 28 10 29 7
202 18.580989015475527 8.126428191982846 38.242643530471035 255 255 255 1.0 28 11 29 8
203 10.465288444268095 7.672750795788827 33.325776645971466 255 255 255 1.0 28 12 29 9
204 13.663423367295938 6.870894942969476 29.420288582810695 255 255 255 1.0 28 13 29 10
205 17.026304827510632 8.018483572298406 37.39447983680913 255 255 255 1.0 28 14 29 11
206 15.261260047568445 7.962119445127259 37.38747555287636 255 255 255 1.0 28 15 29 12
207 10.424388224260172 7.671645702542701 33.30806853681374 255 255 255 1.0 28 16 29 13
208 12.806164773278615 7.811881436892469 36.035005853624995 255 255 255 1.0 28 17 29 14
209 15.063550948468752 -0.9384573291068529 30.110162525352273 255 255 255 1.0 29 15 30 0
210 16.15362031020084 -1.0597279711601826 30.507782112139076 255 255 255 1.0 29 16 30 1
211 15.650400030621034 -1.1004657702660159 30.298327676677008 255 255 255 1.0 29 17 30 2
212 10.049657592590798 7.611284176668667 31.574268665794193 255 255 255 1.0 29 18 30 3
213 10.931646251029036 6.939537989593985 28.66936164770181 255 255 255 1.0 29 19 30 4
214 18.543472164533338 -2.731740641989406 30.58886521535564 255 255 255 1.0 29 20 30 5
215 16.49809518620435 7.940898137082062 37.337063336000355 255 255 255 1.0 30 6 31 0
216 19.02384371580915 7.989503059124006 38.52712888710082 255 255 255 1.0 30 7 31 1
217 19.87092758321738 8.047332037892474 38.189546302163734 255 255 255 1.0 30 8 31 2 32 0 33 0
218 15.517107478174498 7.831944738793263 36.13453555973247 255 255 255 1.0 30 9 31 3 32 1 33 1
219 14.02106692099778 7.837177436057095 35.43346154171648 255 255 255 1.0 30 10 31 4 32 2 33 2
220 13.60538496942553 7.821915450164625 36.04814063817367 255 255 255 1.0 30 11 31 5
221 15.851171327224717 7.893254382074693 37.203561480799124 255 255 255 1.0 30 12 31 6
222 13.23074430546636 7.926619900258727 35.56947344933903 255 255 255 1.0 30 13 31 7
223 16.203707791120017 7.829288515811484 37.85132628290289 255 255 255 1.0 30 14 31 8
224 14.270248326215299 7.8207162847510405 36.4829290195343 255 255 255 1.0 30 15 31 9
225 18.085341336320717 7.95577388285932 38.40672068994962 255 255 255 1.0 30 16 31 10
226 17.727553393405575 7.818668348356265 38.174785843094035 255 255 255 1.0 30 17 31 11
227 19.071704338984823 8.061264670015111 38.12250760233759 255 255 255 1.0 30 18 31 12 32 3
228 18.777001772693747 7.798146749858418 38.44953232584108 255 255 255 1.0 30 19 31 13
229 18.643705072026012 8.026787167866848 38.64124757916116 255 255 255 1.0 30 20 31 14
230 14.312815784118822 7.880153452136527 36.74791078932246 255 255 255 1.0 30 21 31 15
231 12.722059728204044 7.794778437977323 35.17034260021568 255 255 255 1.0 30 22 31 16
232 15.999786975393965 7.877746500460084 37.24607596464431 255 255 255 1.0 30 23 31 17
233 18.8499934439413 8.007184682297943 37.806064209552765 255 255 255 1.0 30 24 31 18
234 16.263153382241963 7.596639872476325 37.34951062059481 255 255 255 1.0 30 25 31 19
235 18.03904098278836 8.081479241087719 37.473983479353606 255 255 255 1.0 30 26 31 20
236 13.673612789837684 7.942481440633505 35.6895241979666 255 255 255 1.0 30 27 31 21
237 19.60871342417355 0.8336654645726133 26.735061176707802 255 255 255 1.0 31 22 32 4
238 17.274165157505152 0.6407592799745359 32.34142224595353 255 255 255 1.0 31 23 32 5
239 17.831412363846788 7.974238025814131 37.488020119478804 255 255 255 1.0 31 24 32 6 33 3
240 16.4439335701001 7.821422490082483 37.120285470817876 255 255 255 1.0 31 25 32 7 33 4
241 22.09895993944011 1.6641421898571478 21.63793476650787 255 255 255 1.0 31 26 32 8
242 18.166513563110833 7.977165623650081 37.55352290175296 255 255 255 1.0 31 27 32 9 33 5
243 16.864842458360002 8.217659219472427 37.77669370700456 255 255 255 1.0 31 28 32 10
244 17.04499551477266 8.068287882715275 37.60348867233438 255 255 255 1.0 31 29 32 11
245 21.046930640147725 -2.5117944088218285 25.546712318914864 255 255 255 1.0 32 12 33 6
246 18.415596804478266 7.781203075938377 37.77711248090071 255 255 255 1.0 32 13 33 7
247 14.889331437628039 7.189617830238802 37.42417897183857 255 255 255 1.0 32 14 33 8
248 17.759927055589237 -2.40749102180695 30.68415973736997 255 255 255 1.0 32 15 33 9
249 15.282779044173298 7.438867049187611 37.25304490302027 255 255 255 1.0 32 16 33 10
250 13.897863741301608 7.661964027537355 34.689605767906116 255 255 255 1.0 32 17 33 11
251 18.892009289544728 -0.7280578956201871 29.436417322152497 255 255 255 1.0 32 18 33 12
252 16.813534874834247 7.789779579069817 36.78832410347297 255 255 255 1.0 32 19 33 13
253 20.858218502820943 -2.7592297498300864 28.421970619028244 255 255 255 1.0 32 20 33 14
254 16.854793582855383 7.489413964883172 37.27665998545914 255 255 255 1.0 32 21 33 15
255 15.2406412267291 7.421154370751654 36.04770620256325 255 255 255 1.0 32 22 33 16
256 18.26171740590128 7.714031248108874 38.49009451031063 255 255 255 1.0 32 23 33 17
257 13.985367732397497 7.705545403374817 34.891504636998434 255 255 255 1.0 32 24 33 18
258 16.73479346948448 7.534549243217488 37.64471815216347 255 255 255 1.0 32 25 33 19
259 22.203190851132913 8.000495637088255 38.48339960265206 255 255 255 1.0 32 26 33 20
260 13.935614759614841 7.41463679339783 36.23538991862044 255 255 255 1.0 32 27 33 21
261 18.969541468467124 7.823964842010147 37.902327647411596 255 255 255 1.0 32 28 33 22
262 15.000475056463149 -2.146163737794581 27.10419487057821 255 255 255 1.0 32 29 33 23
263 11.127918953123254 7.431252034475744 33.70204014572538 255 255 255 1.0 32 30 33 24
264 18.318153267007382 7.553560033027816 38.766861871298225 255 255 255 1.0 32 31 33 25
265 21.213596578873098 -2.1973420516084343 29.53326990138325 255 255 255 1.0 32 32 33 26
266 15.174987460891922 7.350139523529673 37.54859777783467 255 255 255 1.0 32 33 33 27
267 16.219993178472798 7.4913711544891255 37.94308065830009 255 255 255 1.0 32 34 33 28
268 13.230608004451101 7.25869711124959 35.99943598363235 255 255 255 1.0 32 35 33 29
269 14.67216986245978 7.648294033443688 35.87063466196984 255 255 255 1.0 32 36 33 30
270 13.22062078779129 7.401251739945236 35.87507749663164 255 255 255 1.0 32 37 33 31
271 12.254344813578252 7.338971820634698 34.61859743256659 255 255 255 1.0 32 38 33 32
272 17.013954073488378 7.508343118774256 36.63940016299316 255 255 255 1.0 32 39 33 33
273 17.14863235116123 7.703269149623046 36.67953994967485 255 255 255 1.0 32 40 33 34
274 18.978745597001794 7.701908711456373 38.10435923311822 255 255 255 1.0 32 41 33 35
275 13.578055355597328 7.557227849150968 35.14926912123703 255 255 255 1.0 32 42 33 36
276 16.925202435285783 7.494949704453807 36.60089446107179 255 255 255 1.0 32 43 33 37
277 18.48818688348917 -0.9157536741413231 29.409518710977498 255 255 255 1.0 32 44 33 38
278 13.38362360039404 -2.049993267899222 36.619944295664276 255 255 255 1.0 32 45 33 39
279 20.23400257399326 -2.142426863772741 23.520050806732115 255 255 255 1.0 32 46 33 40
280 17.243760963431164 7.579018832963196 37.83095640841338 255 255 255 1.0 32 47 33 41
281 15.654910041349838 7.425759903863073 37.38171846609794 255 255 255 1.0 32 48 33 42
282 11.928580051679857 7.380048000233566 34.690388017604086 255 255 255 1.0 32 49 33 43
283 18.083463168407725 7.560177826858029 38.68567398993833 255 255 255 1.0 32 50 33 44
284 16.58737916614583 7.688640586504712 36.57335663408613 255 255 255 1.0 32 51 33 45
285 19.10274862728662 -0.7624604413621546 29.608989376346088 255 255 255 1.0 32 52 33 46
286 14.688630484266639 7.581261872057079 36.043939221009715 255 255 255 1.0 32 53 33 47
287 24.24623760988508 -0.4239504613785283 20.686658809435183 255 255 255 1.0 32 54 33 48
288 13.174782918560744 7.506323228072562 34.8221726969584 255 255 255 1.0 32 55 33 49
289 22.51354720126599 -2.369479055126608 24.40083515264136 255 255 255 1.0 32 56 33 50
290 21.480171683116414 8.103173216101517 38.79300294108528 255 255 255 1.0 32 57 33 51
291 18.732693082016347 -0.914224763311538 30.321926044891057 255 255 255 1.0 33 52 34 0
292 20.440849383319172 -0.6580269677147131 31.08576503014388 255 255 255 1.0 33 53 34 1
293 18.163188249469222 -0.7515651937449042 30.03131765569967 255 255 255 1.0 33 54 34 2
294 20.661376872526265 -0.9399360192820498 31.30360008676992 255 255 255 1.0 33 55 34 3
295 18.35797333239797 8.28757775183654 38.83527575126482 255 255 255 1.0 33 56 34 4
296 18.893861589660354 8.262625289013906 38.41176043097002 255 255 255 1.0 33 57 34 5
297 17.657695678954944 -0.9430744959383804 30.02028561373694 255 255 255 1.0 33 58 34 6
298 20.885430578974212 -0.7951750736216407 31.17340876811684 255 255 255 1.0 33 59 34 7
299 18.96635956038113 -0.9600129529854327 30.405786505109578 255 255 255 1.0 33 60 34 8
300 20.550158874053903 -0.602108868661316 31.00625265139661 255 255 255 1.0 33 61 34 9
301 15.791965855094904 -1.1595366891968992 29.236038689911922 255 255 255 1.0 33 62 34 10
302 18.844327092630223 -0.5160347881066976 26.710156144595732 255 255 255 1.0 33 63 33 64 34 11
303 27.912518295174454 0.8872498225230816 18.621381939837214 255 255 255 1.0 33 65 34 12
304 19.239995787886883 8.48386160706748 39.23120190621994 255 255 255 1.0 33 66 34 13
305 26.593732723959857 1.0687430494856411 19.69872333044909 255 255 255 1.0 33 67 34 14
306 13.230370964472353 -1.0582929815660185 30.373773454261176 255 255 255 1.0 35 0 36 0
307 18.355233398770444 -1.1396134004739285 32.52864383243255 255 255 255 1.0 35 1 36 1
308 20.379156107895298 -1.132757230968539 33.46277710705369 255 255 255 1.0 35 2 36 2
309 20.917155472324776 5.038343552588525 24.115067422838543 255 255 255 1.0 35 3 36 3
310 23.25642634673791 7.528788295786196 34.52878337645136 255 255 255 1.0 35 4 36 4
311 22.958100891660365 -3.8900425232123155 32.9697185531417 255 255 255 1.0 37 0 38 0
312 24.30190527842336 -1.8317279137858986 26.04027033750727 255 255 255 1.0 37 1 38 1
313 23.453896856895863 -3.408575601579903 33.109346406430745 255 255 255 1.0 37 2 38 2
314 21.69852195579674 -0.7718223185598438 30.811098195758632 255 255 255 1.0 37 3 38 3
315 22.40709248543415 -3.486678148142606 32.71421191046199 255 255 255 1.0 37 4 38 4
316 19.719155661927946 7.910833733664478 37.519525468384195 255 255 255 1.0 37 5 38 5
317 22.742189302956067 7.961268483576937 39.07070101275567 255 255 255 1.0 37 6 38 6
318 22.99421621673697 8.109155437754321 39.035357939253124 255 255 255 1.0 37 7 38 7
319 19.903614894738176 7.883485443963896 38.14566779738836 255 255 255 1.0 37 8 38 8
320 25.64687774701232 0.7390765435162657 25.672987359995606 255 255 255 1.0 37 9 38 9
321 23.074366983517738 -3.526699659143208 32.983265966643906 255 255 255 1.0 37 10 38 10
322 20.297612587916703 7.758382184496324 38.519960585148596 255 255 255 1.0 37 11 38 11
323 18.663805022729008 -0.9649444430094881 29.720746370151524 255 255 255 1.0 37 12 38 12
324 23.73666635156015 8.074016515917453 39.395784872071935 255 255 255 1.0 37 13 38 13
325 17.120376994137807 -0.6553311495972962 28.979885860809098 255 255 255 1.0 37 14 38 14
326 27.188369505478853 0.6998109456958184 23.300075117039473 255 255 255 1.0 37 15 38 15
327 19.923222357388234 2.56976229232917 26.216925233561415 255 255 255 1.0 37 16 38 16
328 20.95866950288596 8.16178901757053 38.77732480305294 255 255 255 1.0 37 17 38 17
329 27.639652417095757 -1.3115054493251124 23.0807905259566 255 255 255 1.0 37 18 38 18
330 23.043319692879304 8.038183533981217 38.13795739131006 255 255 255 1.0 37 19 38 19
331 18.672248715029742 -0.9521294061229778 29.643548340707646 255 255 255 1.0 37 20 38 20
332 22.7699681512582 8.075098240459836 38.73111905915084 255 255 255 1.0 37 21 38 21
333 18.95640087943604 7.866436794801587 38.09018598632322 255 255 255 1.0 37 22 38 22
334 17.64717949590774 7.530504117398108 36.82552964627738 255 255 255 1.0 37 23 38 23
335 23.890183582798365 8.212050072971001 39.73435870262353 255 255 255 1.0 37 24 38 24
336 17.101294065780905 -0.9713739597818343 28.945385886347943 255 255 255 1.0 37 25 38 25
337 23.633824764875907 -2.253680531689625 28.50184392565397 255 255 255 1.0 37 26 38 26
338 28.24874642193185 -1.1849200265322077 25.44302972505309 255 255 255 1.0 37 27 38 27
339 24.595394936755998 6.992297491252966 31.6965594449384 255 255 255 1.0 38 28 39 0
340 18.88913674993315 7.496660402026147 32.199255611530646 255 255 255 1.0 38 29 39 1
341 25.632608128939523 5.821176352266523 25.38211690767318 255 255 255 1.0 38 30 39 2
342 25.998393317866668 9.908087761475793 32.07768943054281 255 255 255 1.0 40 0 41 0
343 23.83593825987178 10.295452031781071 34.02171049403365 255 255 255 1.0 40 1 41 1
344 19.408328331524512 2.4076404582395434 24.560556248358907 255 255 255 1.0 42 0 43 0
345 20.79297388537785 1.7561814923393684 21.845943336509293 255 255 255 1.0 44 0 45 0
346 26.54181831209686 1.3549166656226306 18.674191595502517 255 255 255 1.0 44 1 45 1
347 16.486544692613585 6.362120458316607 27.531185691295725 255 255 255 1.0 44 2 45 2
348 27.915939458784415 5.182651632731221 23.410373420010114 255 255 255 1.0 45 3 46 0
349 27.003885641965834 5.481845978045218 25.498020827868746 255 255 255 1.0 45 4 46 1
350 28.913577756140402 4.858893733955109 21.977757738995184 255 255 255 1.0 45 5 46 2
351 16.914353326411213 6.3817623563994355 26.97868054141822 255 255 255 1.0 45 6 46 3
352 21.47577656265364 -1.1519710292391057 26.232353656630764 255 255 255 1.0 46 4 47 0
353 21.00259959081718 -1.050684074195708 26.116647939722544 255 255 255 1.0 46 5 47 1
354 21.42976218604984 -1.3098339263840664 26.246666764969714 255 255 255 1.0 46 6 47 2
355 22.97901929934743 -1.2542754798230409 26.94212343173469 255 255 255 1.0 46 7 47 3
356 21.532582301186967 -2.8465789851355634 29.74312684161133 255 255 255 1.0 47 4 48 0
357 22.348845335223658 -3.7713909379598225 27.738850019839447 255 255 255 1.0 47 5 48 1
358 22.352161686523463 -4.278778468643566 28.050865279271544 255 255 255 1.0 47 6 48 2
359 28.163933900195662 -1.1913386664288845 15.247213153198896 255 255 255 1.0 47 7 48 3
360 19.711161634080156 -1.1666742347868135 18.86849629530351 255 255 255 1.0 47 8 48 4
361 27.790642917179298 -1.2152989019543572 15.071780959089491 255 255 255 1.0 47 9 48 5
362 26.51164078983758 -1.567428379512659 16.556857570698828 255 255 255 1.0 47 10 48 6
363 29.721839188605536 -1.1125472810251016 12.922318763799124 255 255 255 1.0 47 11 48 7
364 17.061635633670445 -1.1125419367191267 24.007180446799268 255 255 255 1.0 47 12 48 8
365 17.21959798134773 4.621997271435558 20.33825611356946 255 255 255 1.0 47 13 48 9
366 27.95992226034074 -1.2100106472905152 15.147680386687385 255 255 255 1.0 47 14 48 10
367 19.34987433993016 -7.0716442096681735 31.78010940380271 255 255 255 1.0 47 15 48 11
368 21.19164935127385 -1.2557571430386254 25.850748901986215 255 255 255 1.0 47 16 48 12
369 28.435570758328197 -0.7853945786892179 14.903653340310598 255 255 255 1.0 47 17 48 13
370 26.61338380423607 -1.7217994210831091 17.596491120559044 255 255 255 1.0 47 18 48 14
371 20.738969404419286 -3.8458654679346087 27.16942264923893 255 255 255 1.0 47 19 48 15
372 27.23178116352682 5.295456707417967 24.857161716431047 255 255 255 1.0 47 20 48 16
373 21.170865568786148 -1.2685982295690637 25.755567546167892 255 255 255 1.0 47 21 48 17
374 16.164188648474674 6.1089299314515095 26.30038901040699 255 255 255 1.0 47 22 48 18
375 27.12621115651615 3.1807717771306177 13.811285367336941 255 255 255 1.0 47 23 48 19
376 25.999542298671678 3.0836127825002357 13.266118614862242 255 255 255 1.0 47 24 48 20
377 27.40188420285613 3.1485915896047176 13.876313583268185 255 255 255 1.0 47 25 48 21
378 26.278897329967084 -0.45736745042796945 18.51249511072153 255 255 255 1.0 47 26 48 22
379 29.015416907965594 -0.6103459718898039 15.025384450641882 255 255 255 1.0 47 27 48 23
380 16.978617737148436 -1.2469088183287815 23.926417009476314 255 255 255 1.0 47 28 48 24
381 29.66425459250141 2.7945070197829778 12.270028987851747 255 255 255 1.0 47 29 48 25
382 28.168793472855253 0.18616086941354154 14.507414526887208 255 255 255 1.0 47 30 48 26
383 15.610729255508158 -0.45091179870029596 25.656099210747325 255 255 255 1.0 47 31 48 27
384 26.21443922245983 -0.4988628726418935 20.41723353435136 255 255 255 1.0 47 32 48 28
385 21.336511991386757 -1.0553967186876714 25.924142331805196 255 255 255 1.0 47 33 48 29
386 19.436648909786513 1.6466108643751651 21.03911909309283 255 255 255 1.0 47 34 48 30
387 26.0540555319501 -2.2574431699296373 19.67443840614686 255 255 255 1.0 47 35 48 31
388 15.26111648009562 5.907642187694722 25.12588278305817 255 255 255 1.0 47 36 48 32
389 25.247199680027105 -0.4530524812860716 18.10026773887646 255 255 255 1.0 47 37 48 33
390 22.441054659922884 -2.9984275894335353 21.620835130521108 255 255 255 1.0 48 34 49 0
391 26.818970009504206 -0.0036392285560753732 14.194853491568526 255 255 255 1.0 48 35 49 1
392 16.982221941576334 -4.376974080615943 27.54677777275079 255 255 255 1.0 48 36 49 2
393 19.168799269529142 -4.70661251110115 28.5363293665186 255 255 255 1.0 48 37 49 3
394 18.476244020419653 4.239718411634722 28.908966235611143 255 255 255 1.0 48 38 49 4
395 24.764458783440688 -2.5578536080112113 21.608150627444132 255 255 255 1.0 48 39 49 5
396 21.373320691095273 -4.22989840689081 29.394474455457374 255 255 255 1.0 48 40 49 6
397 17.437774291574115 -5.118920143768897 26.565781153377273 255 255 255 1.0 48 41 49 7
398 21.647819190817366 -4.190897072963555 29.619069817609464 255 255 255 1.0 48 42 49 8
399 15.84099138181502 -1.4656513123313621 24.99174169612554 255 255 255 1.0 48 43 49 9
400 19.70433910348687 -2.9586249239742486 26.632835281351994 255 255 255 1.0 48 44 49 10
401 27.375384508489844 -0.009472788605866676 14.361838403397455 255 255 255 1.0 48 45 49 11
402 22.676662558437677 -0.7306920572390077 19.661434976469863 255 255 255 1.0 48 46 49 12
403 19.818404296556682 -1.1207261972636147 26.79785681613384 255 255 255 1.0 48 47 49 13
404 24.815854459106234 -0.4544839758183896 16.470526358952913 255 255 255 1.0 48 48 49 14
405 24.973693369323584 0.15027083291906346 19.48049801534533 255 255 255 1.0 48 49 49 15
406 20.157514452335295 -2.821680830441781 26.644344573492056 255 255 255 1.0 48 50 49 16
407 19.9409831522675 -4.315171069795931 26.947556484220208 255 255 255 1.0 49 17 50 0
408 25.04313542030402 -1.5989164180673234 15.981413407673445 255 255 255 1.0 49 18 50 1
409 26.193182167679087 -1.6733946874571208 16.511935904306753 255 255 255 1.0 49 19 50 2
410 26.512747942787914 -1.36813409166885 14.600571922354353 255 255 255 1.0 49 20 50 3
411 26.615165745479683 -1.2228287196010104 14.6469237641263 255 255 255 1.0 49 21 50 4
412 28.743116052162183 -0.42783022191237013 11.12113396781061 255 255 255 1.0 49 22 50 5
413 25.621747669291288 -2.832507178835642 20.22555885191725 255 255 255 1.0 49 23 50 6
414 25.161638604293326 -1.7397078310779748 17.02009208107661 255 255 255 1.0 49 24 50 7
415 25.205196169914423 5.65820596493262 19.862066737564344 255 255 255 1.0 49 25 50 8
416 26.355043336725164 -1.6321941915041245 14.626854993997108 255 255 255 1.0 49 26 50 9
417 27.208515502781875 -1.435939754583753 14.784912814732598 255 255 255 1.0 49 27 50 10
418 26.733539594699668 -1.2350469827979522 14.686051443041867 255 255 255 1.0 49 28 50 11
419 24.832989556459165 -2.9130655664042404 20.28352348458946 255 255 255 1.0 49 29 50 12
420 22.209235333041754 -0.9211493431510678 26.194279692750616 255 255 255 1.0 49 30 50 13
421 24.29748112201533 -2.209643688583659 17.651550655641437 255 255 255 1.0 49 31 50 14
422 13.563843105056213 -1.8667841856007255 23.14117081216436 255 255 255 1.0 49 32 50 15
423 28.16396519496096 -0.5626713128919462 11.354739958825043 255 255 255 1.0 49 33 50 16
424 25.20007735865175 -0.5093985449135887 18.136536265046864 255 255 255 1.0 49 34 50 17
425 21.651642072062412 -0.937173486523434 25.98923915512632 255 255 255 1.0 49 35 50 18
426 21.672003551200955 -1.1264690003258244 26.07640782169605 255 255 255 1.0 49 36 50 19
427 27.787480029407735 -0.7291511969990168 12.422259124509266 255 255 255 1.0 49 37 50 20
428 19.797183725794685 -1.3290259777797842 25.317607545558484 255 255 255 1.0 49 38 50 21
429 26.594790615087184 -1.3688653015646 14.652241625348674 255 255 255 1.0 49 39 50 22
430 28.387899510118025 -0.918161447452412 12.11835371951517 255 255 255 1.0 49 40 50 23
431 27.327280990135844 -0.18202923147119185 14.287433465630562 255 255 255 1.0 49 41 50 24
432 27.092440910336077 -0.6330428627545146 12.8862298618937 255 255 255 1.0 49 42 50 25
433 16.156336747534482 -1.3557091376310528 23.492381794389466 255 255 255 1.0 49 43 50 26
434 27.339231581171184 -0.6521851536891025 14.437598383060251 255 255 255 1.0 49 44 50 27
435 19.592668672887694 -1.198366824010727 25.17350964540077 255 255 255 1.0 49 45 50 28
436 16.90694190257201 1.7365259258172716 21.010190159638295 255 255 255 1.0 50 29 51 0
437 20.797787414739965 -0.9675270966146626 25.758579539984943 255 255 255 1.0 51 1 52 0
438 14.855486867534719 -1.1871892797486092 23.474442849018015 255 255 255 1.0 51 2 52 1
439 23.337305192836094 -0.8882737269398033 22.5310660546568 255 255 255 1.0 51 3 52 2
440 16.726317629769348 6.879670110128783 31.104496121581384 255 255 255 1.0 52 3 53 0
441 16.611457879210228 -1.228726006634225 22.779234068381456 255 255 255 1.0 52 4 53 1
442 19.538626547724178 6.864004860939035 32.436523677961326 255 255 255 1.0 52 5 53 2
443 18.759708795821826 -1.1617977530960883 23.72326704708315 255 255 255 1.0 52 6 53 3
444 19.316553711788114 6.775511123284585 32.873177256218824 255 255 255 1.0 52 7 53 4
445 20.78527146280116 7.051813661203118 33.14935724690064 255 255 255 1.0 52 8 53 5
446 18.44330034810164 -1.0744460166911438 23.650515120378675 255 255 255 1.0 52 9 53 6
447 19.100624591366937 -1.1516127868546753 23.931923106000927 255 255 255 1.0 52 10 53 7
448 18.756523645152345 -1.2038263592602905 23.733482823147924 255 255 255 1.0 52 11 53 8
449 18.77790364803649 -1.1825993167615492 23.74743190998544 255 255 255 1.0 52 12 53 9
450 17.413332180567743 6.848204619534021 32.049397769301784 255 255 255 1.0 52 13 53 10
451 17.77158941581606 7.0241566123269 31.90843664747355 255 255 255 1.0 52 14 53 11
452 17.097449836849364 6.757995879143835 31.386865182725277 255 255 255 1.0 52 15 53 12
453 23.412655719113637 -0.4405372225075869 15.3288625409387 255 255 255 1.0 52 16 53 13
454 21.551481311616932 7.012935095541757 33.21457444444938 255 255 255 1.0 52 17 53 14
455 23.64799377219226 -0.24951091747418006 12.530187176515375 255 255 255 1.0 52 18 53 15
456 21.477012610685442 6.975992118519013 32.96560237187346 255 255 255 1.0 52 19 53 16
457 20.012676149330034 7.025717946961115 32.52672721685083 255 255 255 1.0 52 20 53 17
458 26.10817975404912 0.028912278917921412 9.497751929979662 255 255 255 1.0 52 21 53 18
459 19.915303980417175 -4.213543556649892 26.406490419867165 255 255 255 1.0 53 19 54 0
460 16.00939117567839 -4.270741078235309 24.415830624174653 255 255 255 1.0 53 20 54 1
461 22.74740933839997 -1.879283772719447 16.5410462677417 255 255 255 1.0 53 21 54 2 54 3
462 16.011552229066968 -3.83750831456554 24.357504340262988 255 255 255 1.0 53 22 54 4
463 19.73472363810756 -3.835862520554144 26.153432730445445 255 255 255 1.0 53 23 54 5
464 12.965296471728578 -1.689459275376207 20.643879751165827 255 255 255 1.0 53 24 53 25 54 6
465 14.867453737117765 -1.1189988425727062 22.00936349260335 255 255 255 1.0 53 26 54 7
466 23.045518789871217 -0.7330437526869612 12.31968368237554 255 255 255 1.0 53 27 54 8
467 12.395582151160138 5.265871528947881 21.668747963964815 255 255 255 1.0 53 28 54 9
468 18.679868398932356 -2.6453842831934233 18.699772096130165 255 255 255 1.0 53 29 54 10
469 18.703607688893733 6.118647057357027 28.31907714720442 255 255 255 1.0 54 11 55 0
470 16.081806788535626 6.570844229401679 31.53192174403973 255 255 255 1.0 54 12 55 1
471 18.92588786118204 6.644109308410298 32.862053899186265 255 255 255 1.0 54 13 55 2
472 20.518343929190717 6.778565816771528 31.937287267165832 255 255 255 1.0 54 14 55 3
473 15.245092967935795 6.56715100583932 30.95646026300563 255 255 255 1.0 54 15 55 4
474 13.66814574276684 6.392014497091704 30.45954321116848 255 255 255 1.0 54 16 55 5
475 16.710716403327474 6.6179366274193905 30.89280971188756 255 255 255 1.0 54 17 55 6
476 16.289821622444624 6.603169523426351 30.727634617155708 255 255 255 1.0 54 18 55 7
477 17.625694010046406 6.673020338751715 31.383378367330078 255 255 255 1.0 54 19 55 8
478 16.770861888965406 6.455011151839063 32.11495688019017 255 255 255 1.0 54 20 55 9
479 15.078091029310697 6.377766723937226 31.355539339061643 255 255 255 1.0 54 21 55 10
480 16.409981856199053 6.76919767730655 30.646767721325 255 255 255 1.0 54 22 55 11
481 15.174904459085045 6.515703166958693 30.697409204581348 255 255 255 1.0 54 23 55 12
482 18.6996876123891 6.694041878662507 31.741977663377817 255 255 255 1.0 54 24 55 13
483 16.415253954080818 6.308715531601554 31.973689791630353 255 255 255 1.0 54 25 55 14
484 17.123961960631327 6.700944307243478 30.763022112602517 255 255 255 1.0 54 26 55 15
485 14.312216575517464 6.684264651486045 30.034754422770064 255 255 255 1.0 54 27 55 16
486 14.446786753937504 6.648779789160946 29.576233873698385 255 255 255 1.0 54 28 55 17
487 14.815727983178279 6.668777838287502 30.366237124299825 255 255 255 1.0 54 29 55 18
488 18.841259364455652 -3.9829223247046768 26.55142909542384 255 255 255 1.0 55 19 56 0
489 14.647402446474219 -4.167849617150488 25.07727032265114 255 255 255 1.0 55 20 56 1
490 18.895947325530475 -3.9376808152460043 26.661372590219177 255 255 255 1.0 55 21 56 2
491 20.43168474676892 -1.2487012143250829 14.97817471824949 255 255 255 1.0 55 22 56 3
492 21.542243870426496 -1.8080913803928036 13.002920611613108 255 255 255 1.0 55 23 56 4
493 18.56486160157961 -4.382087717539229 26.61036160624514 255 255 255 1.0 55 24 56 5
494 20.651249000010743 -1.9586116813492351 14.582259133355073 255 255 255 1.0 55 25 56 6
495 22.010223083902538 -1.3855286829329192 13.065696563814136 255 255 255 1.0 55 26 56 7
496 18.540638326529617 -3.1209685264797677 19.46916056561044 255 255 255 1.0 55 27 56 8
497 20.996134617927552 -1.726971393969913 14.639519509821508 255 255 255 1.0 55 28 56 9
498 19.35925726986535 -1.0076570471049002 25.097260934699893 255 255 255 1.0 55 29 56 10
499 17.728733286611835 -0.9545969539541113 20.568562332708463 255 255 255 1.0 55 30 56 11
500 22.16634688279672 -1.3604204401291502 13.127071819496095 255 255 255 1.0 55 31 56 12
501 23.20264204202088 -0.3936727561460031 9.310771776468311 255 255 255 1.0 55 32 56 13
502 17.543219134549645 -1.1760869371708178 24.58245553188921 255 255 255 1.0 55 33 56 14
503 21.618705816937013 -1.801090404510578 14.909692934136059 255 255 255 1.0 55 34 56 15
504 22.07385876138285 -0.19079597289943825 12.39490058704902 255 255 255 1.0 55 35 56 16
505 23.554207169396058 -0.03271470525266481 9.370106321449866 255 255 255 1.0 55 36 56 17
506 19.44769221118016 -1.0059706327900688 25.115738145166567 255 255 255 1.0 55 37 56 18
507 14.804167917124893 -1.1693561448086913 19.996477990193224 255 255 255 1.0 55 38 56 19
508 19.793557178447458 -0.8958550276334434 18.097408553486666 255 255 255 1.0 55 39 56 20
509 19.356188773988805 1.2331153289501398 16.626641322717 255 255 255 1.0 55 40 56 21
510 23.49024945157017 -0.1228655116470242 9.37203130722471 255 255 255 1.0 55 41 56 22
511 20.827068168550735 -0.33814730487455047 14.582725735655533 255 255 255 1.0 55 42 56 23
512 20.813254890092207 -2.2828009783403482 17.786485512479626 255 255 255 1.0 55 43 56 24
513 19.797514863344848 -0.8161197424012732 18.110188641921837 255 255 255 1.0 55 44 56 25
514 20.68365002657967 -0.11223752457890762 17.368605660880522 255 255 255 1.0 55 45 56 26
515 17.054341718802792 -1.3944708810636213 24.465778464484725 255 255 255 1.0 55 46 56 27
516 22.220631029214747 -1.357492844094816 11.63656620812077 255 255 255 1.0 55 47 56 28
517 14.094545179504804 6.790441584170309 31.15143103387966 255 255 255 1.0 55 48 56 29
518 22.252168798185124 -0.2588993519552349 11.250316244446845 255 255 255 1.0 55 49 56 30
519 22.0900999561214 -0.3243923289075443 12.422312794383146 255 255 255 1.0 55 50 56 31
520 10.948312026291873 -1.8448702598795934 20.853311285946713 255 255 255 1.0 55 51 56 32
521 14.949307022666908 -4.908261568714054 26.88754024123173 255 255 255 1.0 56 33 57 0
522 14.176991963576523 -4.460657461914803 24.398675495389146 255 255 255 1.0 56 34 57 1
523 17.0275121849778 6.741704759866547 30.899436160763134 255 255 255 1.0 56 35 57 2
524 16.90903824693839 6.808894714132937 30.89959278127396 255 255 255 1.0 56 36 57 3
525 12.717032073500578 -1.242770600639636 21.96425897629757 255 255 255 1.0 56 37 57 4
526 14.378233712885594 -4.465022516687268 24.549425363927476 255 255 255 1.0 56 38 57 5
527 13.685860202193352 6.6052493710221105 30.53295822792322 255 255 255 1.0 56 39 57 6
528 11.492100883423547 6.657032962482464 29.11478525777264 255 255 255 1.0 56 40 57 7
529 11.226186952017798 -1.129909446542741 25.323620502194096 255 255 255 1.0 56 41 57 8
530 15.780088929347706 6.572797132389459 31.531335894804002 255 255 255 1.0 56 42 57 9
531 16.806396314870216 6.6287273142040934 31.599163402642578 255 255 255 1.0 56 43 57 10
532 16.951510252460142 -1.2883987301863515 23.845577822005858 255 255 255 1.0 56 44 57 11
533 12.954117245873796 -6.7314599392678645 27.398173202896764 255 255 255 1.0 56 45 57 12
534 13.628055966012353 6.052703456287075 25.397643295204347 255 255 255 1.0 56 46 57 13
535 15.236992236030824 6.63273193239585 31.235762007981926 255 255 255 1.0 56 47 57 14
536 11.843971569866131 6.615853594221432 29.884952047723107 255 255 255 1.0 56 48 57 15
537 22.296684457677834 2.329966059451127 9.073896325865968 255 255 255 1.0 56 49 57 16
538 12.307999659222366 6.634865904010982 29.205927711218898 255 255 255 1.0 56 50 57 17
539 13.973799916197777 6.531524862767084 30.968946590872598 255 255 255 1.0 56 51 57 18
540 13.578974177091165 6.535072097407774 30.853078560723947 255 255 255 1.0 56 52 57 19
541 16.40444456695114 6.562735745433955 31.82218617213426 255 255 255 1.0 56 53 57 20
542 18.873424119307778 6.689454817255272 31.964187048906226 255 255 255 1.0 56 54 57 21
543 16.19225906216019 6.639095214179732 31.105480255584904 255 255 255 1.0 56 55 57 22
544 16.74726515433096 -2.7299289899807326 22.497927288642185 255 255 255 1.0 56 56 57 23
545 17.166172560009624 6.855734671922996 31.15977961337194 255 255 255 1.0 56 57 57 24
546 16.54386849834705 6.601144564154703 30.60023247546886 255 255 255 1.0 56 58 57 25
547 19.104131474169442 -1.8159554692895445 13.94921721974422 255 255 255 1.0 57 26 58 0
548 15.718366365075456 -4.175088824191564 25.732508613412588 255 255 255 1.0 57 27 58 1
549 16.01892651956455 -4.118334815874752 25.859391248457953 255 255 255 1.0 57 28 57 29 58 2 58 3
550 18.5930833709721 -2.08448265477506 15.18568760171236 255 255 255 1.0 57 30 58 4
551 16.371643058643507 -1.3335460597727375 24.30076151982936 255 255 255 1.0 57 31 58 5
552 11.795753727576452 -1.355206957957116 22.26759416507603 255 255 255 1.0 57 32 58 6
553 18.416288780704043 -1.1168159046671728 25.035707531285496 255 255 255 1.0 57 33 58 7
554 18.83705168864316 -0.6786151279124106 14.615393082619871 255 255 255 1.0 57 34 58 8
555 11.8514897164655 -1.474587513693085 22.285755130904352 255 255 255 1.0 57 35 58 9
556 18.120361297047282 -0.5783813587315819 12.761550123147018 255 255 255 1.0 57 36 58 10
557 17.983737149708638 -4.9419019508152235 26.267424969947434 255 255 255 1.0 57 37 58 11
558 13.74713012144566 1.4847887744703538 19.12243704902912 255 255 255 1.0 57 38 58 12
559 17.38871517067695 0.3864069418095208 23.01948536468676 255 255 255 1.0 57 39 58 13
560 15.9881942106444 -1.4317065757965461 24.327573067546645 255 255 255 1.0 57 40 58 14
561 15.928638602891466 -1.492457817138834 24.069560422690863 255 255 255 1.0 57 41 58 15
562 18.10421862519474 -4.897064918387568 26.30112966081694 255 255 255 1.0 57 42 58 16
563 17.20120846472604 -1.2161365505939188 21.15680428335502 255 255 255 1.0 57 43 58 17
564 18.089257830498376 -2.1032312832229123 14.918462600036253 255 255 255 1.0 58 18 58 19 59 0
565 18.709671959871624 -2.372773267188782 16.94724704562172 255 255 255 1.0 58 20 59 1
566 15.955196775026057 -2.551286049286948 16.29572557454241 255 255 255 1.0 58 21 59 2
567 19.605229359256807 -1.1902168736430485 10.355938285813373 255 255 255 1.0 58 22 59 3
568 18.371516103422785 -2.3598781834695113 13.896594796555068 255 255 255 1.0 58 23 59 4
569 15.697870363556426 -1.3038105047841457 23.53216795800557 255 255 255 1.0 58 24 59 5
570 19.907363369351817 -0.3650330894004426 11.447776227844527 255 255 255 1.0 58 25 59 6
571 19.85376434214408 0.0020591869345421335 11.446299393783985 255 255 255 1.0 58 26 59 7
572 19.444948257636085 -0.815663781205761 17.95467377479327 255 255 255 1.0 58 27 59 8
573 19.97040712623319 -0.9470624282019658 11.703778430523768 255 255 255 1.0 58 28 59 9
574 18.91385465167397 -1.6912250923613217 11.762174059893894 255 255 255 1.0 58 29 59 10
575 16.667159890629705 3.9649989101368255 23.214978622850346 255 255 255 1.0 58 30 59 11
576 15.586829549592252 -1.3889786930055317 23.506906050768066 255 255 255 1.0 58 31 59 12
577 19.86729952340705 -1.870296690836516 12.250846335290948 255 255 255 1.0 58 32 59 13
578 20.793389177160112 -0.8871273331062859 9.23041905895169 255 255 255 1.0 58 33 59 14
579 17.769579110181475 -0.9800741695814132 20.439309079518612 255 255 255 1.0 58 34 59 15
580 13.84822683850706 6.853131463483704 31.015385479573897 255 255 255 1.0 58 35 59 16
581 15.793001853345915 -1.46447926349334 23.712968316074594 255 255 255 1.0 58 36 59 17
582 17.81575672673888 -2.417967949941243 13.559499108275725 255 255 255 1.0 58 37 59 18
583 9.154981958737128 6.72622280209425 28.618391073610084 255 255 255 1.0 58 38 59 19
584 14.010052401379031 -4.932452444205667 28.152862399139174 255 255 255 1.0 59 20 60 0
585 14.290388344292474 -1.3371778885129324 25.858130364178894 255 255 255 1.0 59 21 60 1
586 9.642811551114425 -1.7285480339227195 23.96908617307119 255 255 255 1.0 59 22 60 2
587 9.602797320911433 -1.8813286915699639 23.89428878177095 255 255 255 1.0 59 23 60 3
588 14.894450921988268 -1.1839474534078902 21.22519622946835 255 255 255 1.0 59 24 60 4
589 14.147453237466417 -1.7336842127524268 25.977524967500198 255 255 255 1.0 59 25 60 5
590 16.969111980881284 -1.3085811742600746 27.0828481966873 255 255 255 1.0 59 26 60 6
591 14.843332054970233 0.43128676555196555 27.858657374009553 255 255 255 1.0 59 27 60 7
592 9.951512685154974 -1.7239582093857764 24.212710765732623 255 255 255 1.0 59 28 60 8
593 18.42888581977954 -0.44745264429889825 9.998681551377194 255 255 255 1.0 59 29 60 9
594 20.093749805858756 -0.3024202896920251 9.024206188693878 255 255 255 1.0 59 30 60 10
595 12.799146064070008 -3.903756021690919 22.552972646031307 255 255 255 1.0 60 11 61 0
596 11.212497351120001 -5.02832375853872 28.447096915053606 255 255 255 1.0 60 12 61 1
597 8.79877468492418 6.106477321185279 26.340958824541254 255 255 255 1.0 60 13 61 2
598 8.185787588052001 6.079455463426592 26.361773295275572 255 255 255 1.0 60 14 61 3
599 7.31718222259964 5.699557234504736 27.938842237327343 255 255 255 1.0 60 15 61 4
600 16.544426843039393 -3.745956713961232 23.93336253703565 255 255 255 1.0 60 16 61 5
601 15.652032669106209 -1.2090724759647706 20.559925203621034 255 255 255 1.0 60 17 60 18 61 6
602 8.450403444898317 -5.835283619990357 28.113891629972834 255 255 255 1.0 60 19 61 7
603 14.808922175286291 6.1731999777626205 28.669393709055793 255 255 255 1.0 60 20 61 8
604 9.17365907422697 5.821317649492123 27.488584456251935 255 255 255 1.0 60 21 61 9
605 15.098866629289175 -1.3944532007270432 22.084511685223614 255 255 255 1.0 60 22 61 10
606 14.2553032732374 5.8318517099696106 29.398692981343224 255 255 255 1.0 60 23 61 11
607 18.625471612210642 2.4797900564859896 9.68129178814239 255 255 255 1.0 60 24 61 12
608 15.491779317954261 -0.9484628915746921 15.76632410140259 255 255 255 1.0 60 25 61 13
609 14.353208354196719 6.336347126576407 28.405709946950193 255 255 255 1.0 60 26 61 14
610 13.419383918061339 6.018051247533036 28.88033539470851 255 255 255 1.0 60 27 61 15
611 15.031014237648266 6.178859257883592 29.75966463949001 255 255 255 1.0 60 28 61 16
612 14.958084092413054 -1.2990301458771547 21.854544604949407 255 255 255 1.0 60 29 61 17
613 15.375012316192388 6.158176648873683 29.37379359398488 255 255 255 1.0 60 30 61 18
614 14.886053756810242 -1.1853949168636695 21.828715825121552 255 255 255 1.0 60 31 61 19
615 16.691184457816384 4.899503400713693 21.554023396806897 255 255 255 1.0 60 32 61 20
616 9.633114687646572 5.899566580419277 26.764970364285716 255 255 255 1.0 60 33 61 21
617 14.005473623594538 5.874603226003253 29.530253307319683 255 255 255 1.0 60 34 61 22
