# 3D point list with one line of data per point:
#   POINT3D_ID, X, Y, Z, R, G, B, ERROR, TRACK[]
4354 6.935706516826182 4.142849856618586 24.09690994709555 255 255 255 1.0 38 351 39 351
4355 1.031378640402145 4.5056866382888545 19.48954068031301 255 255 255 1.0 38 352 39 352
4356 -1.191240342727197 5.137055092116203 21.188471143536965 255 255 255 1.0 38 353 39 353 40 27
4357 5.620076494375546 4.250671349286018 23.15420068682452 255 255 255 1.0 38 354 39 354
4358 5.215977196215709 4.419749738543334 23.798705215814724 255 255 255 1.0 38 355 39 355
4359 1.7609751361132882 5.446887717685392 26.873388953963854 255 255 255 1.0 38 356 39 356 40 28
4360 5.127886100179088 4.56402771383166 24.735058174089012 255 255 255 1.0 38 357 39 357
4361 1.9455153665356633 5.496548517348687 27.300371748268976 255 255 255 1.0 38 358 39 358 40 29
4362 1.4823476379723306 5.526801016750786 26.350999263431007 255 255 255 1.0 38 359 39 359 40 30
4363 3.041978290008035 5.446259931616193 27.609458441606588 255 255 255 1.0 38 360 39 360 40 31
4364 4.733241368774603 4.2836136171652885 21.609111144339458 255 255 255 1.0 38 361 39 361
4365 3.359058862085043 4.223037235300306 19.373231463322583 255 255 255 1.0 38 362 39 362
4366 2.443511088342778 4.569024702989221 20.288553192279444 255 255 255 1.0 38 363 39 363
4367 2.98813653779067 4.401224070985318 19.22185931812338 255 255 255 1.0 38 364 39 364
4368 4.385041102057436 4.454438953667563 21.07657202018243 255 255 255 1.0 38 365 39 365
4369 4.701220663423659 4.174039926695327 19.30443347966771 255 255 255 1.0 38 366 39 366
4370 -1.2132826183842813 5.6039366722957356 21.19124467355247 255 255 255 1.0 38 367 39 367 40 32
4371 4.000730084466851 4.322077712636116 19.152081860831544 255 255 255 1.0 38 368 39 368
4372 3.7359902754228367 4.4219124688795395 19.55219111348883 255 255 255 1.0 38 369 39 369
4373 7.004955317361238 4.726682780228736 24.93283327073062 255 255 255 1.0 38 370 39 370
4374 -0.17846710716879755 5.490723202079891 20.697699352287792 255 255 255 1.0 38 371 39 371 40 33
4375 5.192820501515562 4.997710061220401 23.831164791335656 255 255 255 1.0 38 372 39 372
4376 4.649865238548574 4.6614031155260065 20.154049227654095 255 255 255 1.0 38 373 39 373
4377 4.73016717316059 4.673041680632763 20.329966399232227 255 255 255 1.0 38 374 39 374
4378 1.688854073589995 5.919742724231943 23.94371006127427 255 255 255 1.0 38 375 39 375 40 34
4379 4.821151425255561 4.597114660700828 19.673055828455176 255 255 255 1.0 38 376 39 376
4380 7.400741216975994 5.193573127271384 25.482850089598063 255 255 255 1.0 38 377 39 377
4381 8.024952776888766 5.154422980669008 25.007956676682902 255 255 255 1.0 38 378 39 378
4382 8.48556890139729 5.020028440534047 24.83183840407086 255 255 255 1.0 38 379 39 379
4383 7.935246863865501 5.170989975418462 24.652274953345056 255 255 255 1.0 38 380 39 380
4384 4.401934812334828 5.910764477967854 23.610393857486137 255 255 255 1.0 38 381 39 381 40 35
4385 6.356827311295672 5.35704041088187 22.984708940985243 255 255 255 1.0 38 382 39 382
4386 5.015161532631557 5.088347868942153 18.62875204347996 255 255 255 1.0 38 383 39 383
4387 7.7501563202470685 5.4474472734894075 21.55597900245706 255 255 255 1.0 38 384 39 384
4388 7.012416382135981 5.455845735832538 19.43728675793454 255 255 255 1.0 38 385 39 385
4389 7.033355060940082 5.5455456423542 17.939796706731283 255 255 255 1.0 38 386 39 386
4390 6.108094660261124 6.370106361391709 19.05593077279472 255 255 255 1.0 38 387 39 387 40 36
4391 9.60233828192514 5.9838695083592395 21.35305401987555 255 255 255 1.0 38 388 39 388
4392 9.785984475845298 6.022300292880026 21.23653097171851 255 255 255 1.0 38 389 39 389
4393 10.211638646482422 5.840218979927596 21.07228487645668 255 255 255 1.0 38 390 39 390
4394 8.430350039481517 5.899662237214636 18.250957922122943 255 255 255 1.0 38 391 39 391
4395 8.458417905106378 5.763252138347534 17.0716686431619 255 255 255 1.0 38 392 39 392
4396 8.992802460993197 6.3515696699085815 19.166982281278408 255 255 255 1.0 38 393 39 393
4397 10.7721578993765 6.210749390230129 20.837281978831083 255 255 255 1.0 38 394 39 394
4398 11.997209392913232 6.279671919832714 22.668937161754418 255 255 255 1.0 38 395 39 395
4399 8.98024443695449 5.969106585939811 17.14281642446413 255 255 255 1.0 38 396 39 396
4400 9.807860218500542 6.39861815555529 19.590485576335425 255 255 255 1.0 38 397 39 397
4401 11.633268796618667 6.465839706196629 21.6949761694238 255 255 255 1.0 38 398 39 398
4402 11.696078388929628 6.545399454246753 21.72573716943298 255 255 255 1.0 38 399 39 399
4403 10.645620051845569 6.296889699181 19.33497204642659 255 255 255 1.0 38 400 39 400
4404 9.68641331040999 6.222850389489992 17.599331126317757 255 255 255 1.0 38 401 39 401
4405 10.689673683308378 6.59084535210056 19.613540820187126 255 255 255 1.0 38 402 39 402
4406 -1.7783454762361868 -6.006179523868926 29.925507773332633 255 255 255 1.0 39 403 40 37
4407 -1.5103579914589962 -0.003127726388030583 30.510707133782983 255 255 255 1.0 39 404 40 38
4408 -1.956266843258978 0.8958585185233706 30.143562240305712 255 255 255 1.0 39 405 40 39
4409 -2.129819654771896 1.089306120908142 29.985532549668573 255 255 255 1.0 39 406 40 40
4410 -4.167047131930008 1.8703825347827905 27.49907766486844 255 255 255 1.0 39 407 40 41
4411 -2.736493959509613 2.1528550379300517 28.002984053260292 255 255 255 1.0 39 408 40 42
4412 -1.8659286169271572 2.1871445255361706 29.02991031419142 255 255 255 1.0 39 409 40 43
4413 -5.254822312545731 2.0866647594907124 22.627694782551487 255 255 255 1.0 39 410 40 44
4414 -3.3461424091521206 2.4654835168617306 27.17146334052015 255 255 255 1.0 39 411 40 45
4415 -2.1331911696579122 2.4908002404951213 28.78437340653874 255 255 255 1.0 39 412 40 46
4416 -3.7311829289617853 2.655990232018305 28.227781242182672 255 255 255 1.0 39 413 40 47
4417 -1.8697921032263727 2.673652390161881 27.81784234018829 255 255 255 1.0 39 414 40 48
4418 -3.916186639872869 2.5207119372272997 21.759074387056376 255 255 255 1.0 39 415 40 49
4419 -2.062525397603042 3.0258315541626106 30.146731066332254 255 255 255 1.0 39 416 40 50
4420 -5.301223462319996 2.823825590967058 22.700646284257672 255 255 255 1.0 39 417 40 51
4421 -5.4262779476737135 2.8924632326047055 22.138186345950107 255 255 255 1.0 39 418 40 52
4422 -0.7669940627737802 3.278822043849849 29.067736191084542 255 255 255 1.0 39 419 40 53
4423 -4.502219740008133 3.9381211563718757 27.16649123747334 255 255 255 1.0 39 420 40 54
4424 -2.9467593182380587 4.329883471248204 27.876054387118796 255 255 255 1.0 39 421 40 55
4425 -2.807221662849671 4.778765354495087 29.484240143502742 255 255 255 1.0 39 422 40 56
4426 -0.6712385590106549 4.59942451730014 26.984887628744843 255 255 255 1.0 39 423 40 57
4427 -0.43938710737579556 5.053152059685652 30.499348155217973 255 255 255 1.0 39 424 40 58
4428 -6.26790807553207 5.03801584517583 22.659280875195638 255 255 255 1.0 39 425 40 59
4429 -0.9657218244640536 5.058240227508456 26.644881175609427 255 255 255 1.0 39 426 40 60
4430 -3.099611052849249 5.764765880090541 27.7983822559572 255 255 255 1.0 39 427 40 61
4431 -1.1299413094585156 5.848534914334588 29.956954551888828 255 255 255 1.0 39 428 40 62
4432 -0.014605701480333728 5.788644096211698 29.8651815502038 255 255 255 1.0 39 429 40 63
4433 -1.3587348876167953 6.0691926971436 29.770917512555755 255 255 255 1.0 39 430 40 64
4434 -3.542066947470207 6.058523291518746 25.514970666116874 255 255 255 1.0 39 431 40 65
4435 -2.1068519617955035 6.031358679640578 26.37556180775502 255 255 255 1.0 39 432 40 66
4436 -0.3029532942816574 6.187607550274382 29.623437733409485 255 255 255 1.0 39 433 40 67
4437 -0.11787064899176078 5.927177243185945 27.71676217981146 255 255 255 1.0 39 434 40 68
4438 -3.5221045196778453 6.5402811096207705 27.253623257139758 255 255 255 1.0 39 435 40 69
4439 -1.4139418170685645 6.503536642263363 28.570901609409418 255 255 255 1.0 39 436 40 70
4440 -3.813772850654469 6.238135292819184 22.843002183203364 255 255 255 1.0 39 437 40 71
4441 -3.286715224203281 6.386169308672893 22.126526166062185 255 255 255 1.0 39 438 40 72
4442 -3.255240977291922 6.394776076846437 22.234248020096146 255 255 255 1.0 39 439 40 73
4443 -2.6749954048385463 6.325834587146421 21.789149570410967 255 255 255 1.0 39 440 40 74
4444 -1.1406512104900883 6.666645128751562 22.398073250967634 255 255 255 1.0 39 441 40 75
4445 2.1247857302757875 6.513287707233506 18.460172238810607 255 255 255 1.0 39 442 40 76
4446 5.302277142907636 6.925817680262729 21.305028450801274 255 255 255 1.0 39 443 40 77
4447 8.756866558264997 6.7500742757554 25.38517639758132 255 255 255 1.0 39 444 40 78
4448 6.124674749404311 6.9025468404958605 20.89974650261523 255 255 255 1.0 39 445 40 79
4449 6.986353231977446 7.4282913370572 23.440250428867365 255 255 255 1.0 39 446 40 80
4450 6.293527504458031 7.024671143172533 17.78863435879409 255 255 255 1.0 39 447 40 81
4451 6.925829608987743 7.040110457393711 18.112330099108505 255 255 255 1.0 39 448 40 82
4452 7.762674507897676 6.969310892247 18.331883238118365 255 255 255 1.0 39 449 40 83
4453 -0.34547843979336024 -2.9266033267073475 22.911255651562918 255 255 255 1.0 40 84 41 0
4454 2.8505579740090137 10.22172532992151 24.092119971134316 255 255 255 1.0 41 1 42 0
4455 6.091724569226995 10.502382843544535 26.018857681285517 255 255 255 1.0 41 2 42 1
4456 -0.5466715464305502 8.720790059916885 23.930895769435864 255 255 255 1.0 42 2 43 0
4457 2.0533029208794304 8.981012055175617 25.79197083452063 255 255 255 1.0 42 3 43 1
4458 4.700215899521332 8.250399969118725 25.4820740696301 255 255 255 1.0 42 4 43 2 44 0
4459 3.911674212133236 8.388467844721664 23.758661626880762 255 255 255 1.0 42 5 43 3 44 1
4460 4.813981977631801 8.223433845282766 23.50541588502478 255 255 255 1.0 42 6 43 4 44 2
4461 4.749875249758315 8.706440609678504 23.42409363747948 255 255 255 1.0 42 7 43 5
4462 7.8971670250670485 8.388248895812731 24.309240829498425 255 255 255 1.0 42 8 43 6
4463 8.511682037674568 8.910807833531068 26.440965227406913 255 255 255 1.0 42 9 43 7
4464 -4.154811162204273 2.5536698322002764 31.50392341731094 255 255 255 1.0 43 8 44 3
4465 -5.976193171086673 3.480898300620835 27.96537840950291 255 255 255 1.0 43 9 44 4
4466 -4.198124076563152 3.5237385774987118 29.584877190273215 255 255 255 1.0 43 10 44 5
4467 -2.9621094598062943 4.112742182298352 31.546539549138597 255 255 255 1.0 43 11 44 6
4468 -1.3686949490049822 6.639657813638002 30.732778134950095 255 255 255 1.0 43 12 44 7
4469 -2.330996697138668 6.721936764303795 28.989511762276614 255 255 255 1.0 43 13 44 8
4470 -0.31639212114333404 7.000936441827369 29.67026643902995 255 255 255 1.0 43 14 44 9
4471 -2.331098810116763 7.344000209407382 25.464460226929955 255 255 255 1.0 43 15 44 10
4472 -0.9089270305637297 7.688040120206575 26.85483906655945 255 255 255 1.0 43 16 44 11
4473 -2.022109606618698 8.812217675151023 31.118525639818337 255 255 255 1.0 43 17 44 12
4474 -3.7309460044567007 7.903281666908657 21.95613069902814 255 255 255 1.0 43 18 44 13
4475 4.136691538938933 7.774164718854898 29.096636945384738 255 255 255 1.0 43 19 44 14
4476 4.641121562145215 7.81670125965046 24.005036480667577 255 255 255 1.0 43 20 44 15
4477 5.9209113323666145 7.5613268957304935 24.413897558322954 255 255 255 1.0 43 21 44 16
4478 4.125114988611011 7.5988926914136 21.415303769243568 255 255 255 1.0 43 22 44 17
4479 8.6114361501803 7.602238648843449 27.8349555796451 255 255 255 1.0 43 23 44 18
4480 5.89248015102685 7.523752978607785 23.02191666389671 255 255 255 1.0 43 24 44 19
4481 5.048919809933875 8.003005519607155 23.32320187442074 255 255 255 1.0 43 25 44 20
4482 5.533477887066072 7.784533489396251 22.934254299686813 255 255 255 1.0 43 26 44 21
4483 5.371109357388381 7.4996333348080855 19.903638984243436 255 255 255 1.0 43 27 44 22
4484 8.882348569868302 7.86394635053453 26.236834077852983 255 255 255 1.0 43 28 44 23
4485 9.025635250109875 7.636651361000687 21.635760118698837 255 255 255 1.0 43 29 44 24
4486 -0.026693765714608964 8.118667543309492 33.645694521776896 255 255 255 1.0 44 25 45 0
4487 -1.188737270480061 8.423922230471426 33.43936638394987 255 255 255 1.0 44 26 45 1
4488 -2.7133894066227495 8.395660797898845 24.33192932922716 255 255 255 1.0 44 27 45 2
4489 2.288092308405585 8.370045952533872 31.56017121603761 255 255 255 1.0 44 28 45 3
4490 -2.736486575955381 8.484217917305964 22.94438562393084 255 255 255 1.0 44 29 45 4
4491 10.691534203407967 -5.731555987827884 22.252458274455822 255 255 255 1.0 46 0 47 0
4492 11.825104957744854 -5.236676171316804 22.481929404200432 255 255 255 1.0 46 1 47 1
4493 11.556134246185028 -5.369058276583826 22.718391323126635 255 255 255 1.0 46 2 47 2
4494 11.108741055330432 -5.45089322584361 22.494456027596904 255 255 255 1.0 46 3 47 3
4495 11.158443564918944 -5.4268709150417545 22.664926261825883 255 255 255 1.0 46 4 47 4
4496 11.104334458343912 -5.337799838906361 22.495736767367966 255 255 255 1.0 46 5 47 5
4497 11.273220483321241 -5.276003087185136 22.965703941802285 255 255 255 1.0 46 6 47 6
4498 11.526554634556838 -5.0714711517445865 23.098162470727182 255 255 255 1.0 46 7 47 7
4499 11.010181676220379 -5.066687926367326 22.152510815491652 255 255 255 1.0 46 8 47 8
4500 11.262375531471617 -4.981692412374876 22.440638678417663 255 255 255 1.0 46 9 47 9
4501 11.21867020200961 -4.909796370591158 22.301470321192422 255 255 255 1.0 46 10 47 10
4502 11.642161218834213 -4.868106772496825 22.942806353967388 255 255 255 1.0 46 11 47 11
4503 11.169164716169263 -4.845375998228292 22.040151923430926 255 255 255 1.0 46 12 47 12
4504 11.071819101306556 -5.073729625114569 22.996975646674898 255 255 255 1.0 46 13 47 13
4505 11.423051915536472 -4.891228339039232 22.89135343091356 255 255 255 1.0 46 14 47 14
4506 11.641153198893951 -4.8121945399527135 22.94299786945528 255 255 255 1.0 46 15 47 15
4507 11.192901512487325 -4.940189803833656 22.80795004105219 255 255 255 1.0 46 16 47 16
4508 10.9405672048057 -4.782665566400555 21.78641033419298 255 255 255 1.0 46 17 47 17
4509 11.281852395404394 -4.8672294872802375 23.008276429921512 255 255 255 1.0 46 18 47 18
4510 10.99846352095666 -4.807462330524441 22.124339593064665 255 255 255 1.0 46 19 47 19
4511 11.054223682328564 -4.792809443945276 22.402969814718556 255 255 255 1.0 46 20 47 20
4512 10.941423098949983 -4.6921761816958165 21.80111645057889 255 255 255 1.0 46 21 47 21
4513 11.487059795046127 -4.712072812264216 23.035818196850528 255 255 255 1.0 46 22 47 22
4514 11.309113452716687 -4.675195570810814 22.62434542005236 255 255 255 1.0 46 23 47 23
4515 11.154868557647996 -4.563184332644312 22.09137872748299 255 255 255 1.0 46 24 47 24
4516 11.55691705485993 -4.506566824970146 22.776741406096015 255 255 255 1.0 46 25 47 25
4517 11.05538249320985 -4.80431702065092 23.42163922003528 255 255 255 1.0 46 26 47 26
4518 11.033566437503536 -4.536380501574979 22.378500053902037 255 255 255 1.0 46 27 47 27
4519 10.940142346079824 -4.47738653066842 21.95690605538514 255 255 255 1.0 46 28 47 28
4520 11.232308104202946 -4.156180396683722 21.644579654010915 255 255 255 1.0 46 29 47 29
4521 11.133642380876713 -4.231362969056626 22.098336963413775 255 255 255 1.0 46 30 47 30
4522 11.337404560994882 -4.055927847499168 22.199991873596602 255 255 255 1.0 46 31 47 31
4523 11.137147854855106 -4.073493715220737 22.143088402338268 255 255 255 1.0 46 32 47 32
4524 11.504426352672432 -4.0172280420898385 22.688526848014718 255 255 255 1.0 46 33 47 33
4525 10.932745984020448 -4.2017512125492775 23.210390704464327 255 255 255 1.0 46 34 47 34
4526 11.522454498482723 -3.8138475133952237 22.74224842505121 255 255 255 1.0 46 35 47 35
4527 11.61660804244132 -3.682382009645226 22.933281980975668 255 255 255 1.0 46 36 47 36
4528 11.658316453880925 -3.599383800579603 22.629358850493624 255 255 255 1.0 46 37 47 37
4529 11.76992685906041 -3.545905297546664 22.855835863190908 255 255 255 1.0 46 38 47 38
4530 11.587736486783642 -3.5715138792091388 22.883472064542786 255 255 255 1.0 46 39 47 39
4531 10.881901911190552 -3.6314886463765004 21.896471463841 255 255 255 1.0 46 40 47 40
4532 10.843473104196226 -3.574062147964241 21.52091285085434 255 255 255 1.0 46 41 47 41
4533 10.82577683939812 -3.518829246314511 21.542648462324703 255 255 255 1.0 46 42 47 42
4534 11.416110306501292 -3.4771652994523223 22.52192795771983 255 255 255 1.0 46 43 47 43
4535 11.03137115952247 -3.549274346652303 22.5189757401654 255 255 255 1.0 46 44 47 44
4536 11.198190758060482 -3.2855775648016836 21.82069237187252 255 255 255 1.0 46 45 47 45
4537 11.567247863572126 -3.2613824402625102 22.45213843355721 255 255 255 1.0 46 46 47 46
4538 11.366100115279654 -3.2515580092089116 22.417563063403325 255 255 255 1.0 46 47 47 47
4539 11.210707371115795 -3.171634949145299 21.89189690266023 255 255 255 1.0 46 48 47 48
4540 11.41151636601944 -3.182707400274747 22.538189029896973 255 255 255 1.0 46 49 47 49
4541 11.00620058853588 -3.105723049765445 21.76916916323384 255 255 255 1.0 46 50 47 50
4542 11.07312731655311 -3.059820903554405 22.117106337053656 255 255 255 1.0 46 51 47 51
4543 11.027476978576106 -2.9384917201475167 21.962402898058752 255 255 255 1.0 46 52 47 52
4544 11.295730698269017 -2.7825765047618227 21.58450082454543 255 255 255 1.0 46 53 47 53
4545 11.268716683650881 -2.8729504189445922 22.17631896682992 255 255 255 1.0 46 54 47 54
4546 11.267798266376436 -2.703957211806038 21.280687401918676 255 255 255 1.0 46 55 47 55
4547 10.894305734373944 -2.895501859817833 22.172765006635696 255 255 255 1.0 46 56 47 56
4548 11.100785662898677 -2.760312142909822 22.26177783097476 255 255 255 1.0 46 57 47 57
4549 10.821451900832164 -2.8570536964069237 22.591089157425706 255 255 255 1.0 46 58 47 58
4550 11.39184074275253 -2.6748600124029145 22.528865105713667 255 255 255 1.0 46 59 47 59
4551 2.6223715276960893 -4.6773923648988385 20.36066142542915 255 255 255 1.0 46 60 47 60
4552 11.389017875885235 -2.604465910366463 22.529796914114797 255 255 255 1.0 46 61 47 61
4553 10.869132585050911 -2.8226300801892075 23.167512902072257 255 255 255 1.0 46 62 47 62
4554 11.319124905213076 -2.724233983036623 23.5070753482958 255 255 255 1.0 46 63 47 63
4555 11.38389615827661 -2.5276409626880634 22.531702808529626 255 255 255 1.0 46 64 47 64
4556 10.573890163097047 -2.593827267192974 21.343495492551146 255 255 255 1.0 46 65 47 65
4557 11.67520589663619 -2.415240292606667 22.724465777982207 255 255 255 1.0 46 66 47 66
4558 11.702051235830984 -2.4137578547161334 22.77406306740448 255 255 255 1.0 46 67 47 67
4559 11.090663603597854 -2.378728039362536 21.535748683081824 255 255 255 1.0 46 68 47 68
4560 11.839778174074182 -2.3261590320051364 23.002632042422825 255 255 255 1.0 46 69 47 69
4561 10.863272060000062 -2.6698433198583094 23.892397112829737 255 255 255 1.0 46 70 47 70
4562 11.77643702570454 -2.294639689475913 23.2103552743891 255 255 255 1.0 46 71 47 71
4563 10.86732296027647 -2.5988750179628086 23.88943070499454 255 255 255 1.0 46 72 47 72
4564 10.895068337049416 -2.2885012926723474 21.420649168210648 255 255 255 1.0 46 73 47 73
4565 11.026147511413514 -2.3051829063592044 22.08502402856551 255 255 255 1.0 46 74 47 74
4566 11.46625570687834 -2.334661641155645 23.39270666718626 255 255 255 1.0 46 75 47 75
4567 10.928500907155966 -2.3177457820577088 22.885728625910552 255 255 255 1.0 46 76 47 76
4568 11.72491352979008 -2.1438164833995583 23.140864777194448 255 255 255 1.0 46 77 47 77
4569 11.201418620189989 -2.1282298627806844 22.107138508501908 255 255 255 1.0 46 78 47 78
4570 11.572119785591232 -1.9861406729684519 22.552309185913025 255 255 255 1.0 46 79 47 79
4571 10.745093305783826 -2.0598568568300077 21.798563605933506 255 255 255 1.0 46 80 47 80
4572 10.95496599833169 -2.240691093350174 23.9968844737989 255 255 255 1.0 46 81 47 81
4573 11.498171775934434 -1.9950835766650201 23.12905076593373 255 255 255 1.0 46 82 47 82
4574 10.734872486105383 -2.0010122604967555 21.770541099737827 255 255 255 1.0 46 83 47 83
4575 11.682360447084495 -1.889996612514793 22.765221411213933 255 255 255 1.0 46 84 47 84
4576 10.428295286587725 -2.093080398567451 22.0938410533864 255 255 255 1.0 46 85 47 85
4577 10.67528634413848 -1.8357578428428045 21.338158307650744 255 255 255 1.0 46 86 47 86
4578 11.331284172551467 -1.8489603951862192 23.529589793239218 255 255 255 1.0 46 87 47 87
4579 11.397899928052391 -1.7934638725519905 23.310965055658272 255 255 255 1.0 46 88 47 88
4580 3.1894148690906547 -3.104492475641429 19.788793657906538 255 255 255 1.0 46 89 47 89
4581 10.279641529120292 -1.9011730275381276 22.399638651194426 255 255 255 1.0 46 90 47 90
4582 10.487928568751395 -1.7377695289811634 21.525131152233264 255 255 255 1.0 46 91 47 91
4583 11.185963414520048 -1.6587786039047268 22.60117337578247 255 255 255 1.0 46 92 47 92
4584 10.24126080794164 -1.7769280290175393 22.297188510055808 255 255 255 1.0 46 93 47 93
4585 11.48809753411075 -1.525841159952147 22.416917437730103 255 255 255 1.0 46 94 47 94
4586 11.253801304607421 -1.549366832237646 22.316715239769806 255 255 255 1.0 46 95 47 95
4587 2.0071277862382186 -3.1076805379101953 20.965608857395296 255 255 255 1.0 46 96 47 96
4588 2.0296587219083184 -3.21854162526 22.109031159105747 255 255 255 1.0 46 97 47 97
4589 11.350264798574798 -1.4635499253983715 22.10443176601387 255 255 255 1.0 46 98 47 98
4590 11.338950860195482 -1.5059372469083687 22.51531230035474 255 255 255 1.0 46 99 47 99
4591 1.674728858487885 -3.2277365997775846 21.987437809353235 255 255 255 1.0 46 100 47 100
4592 11.533860207959906 -1.4121783546707471 22.520267944299906 255 255 255 1.0 46 101 47 101
4593 2.354313992711898 -2.930948422555981 21.023155751075887 255 255 255 1.0 46 102 47 102
4594 11.409801260616025 -1.3800212211278684 22.264304247463823 255 255 255 1.0 46 103 47 103
4595 1.4245750275054678 -3.0390104381248473 20.672783402876743 255 255 255 1.0 46 104 47 104
4596 1.2966179022051847 -3.0590486918539828 20.790493171348906 255 255 255 1.0 46 105 47 105
4597 3.0715116048370086 -2.6767935414966737 20.15371487140383 255 255 255 1.0 46 106 47 106
4598 11.09422725188184 -1.358912462768283 21.881934809890467 255 255 255 1.0 46 107 47 107
4599 11.185589260991529 -1.3355639821008325 22.172058135552213 255 255 255 1.0 46 108 47 108
4600 1.7337106879342428 -2.8970609733482244 21.77347986521338 255 255 255 1.0 46 109 47 109
4601 11.045850635821571 -1.2836175558618819 21.71472951405621 255 255 255 1.0 46 110 47 110
4602 10.904594345829176 -1.3204689375953291 21.87653944251679 255 255 255 1.0 46 111 47 111
4603 2.7578028373095336 -2.584683487581511 20.88179411657116 255 255 255 1.0 46 112 47 112
4604 11.133896100437932 -1.2629927019562808 22.03669257917466 255 255 255 1.0 46 113 47 113
4605 2.799043112132476 -2.483012138425329 21.315910355594582 255 255 255 1.0 46 114 47 114
4606 10.919443249126266 -1.2079541431214071 21.964525076347822 255 255 255 1.0 46 115 47 115
4607 2.9786771492451396 -2.412309109380358 21.049311089050608 255 255 255 1.0 46 116 47 116
4608 11.332295489368251 -1.1333653103711514 22.094743215208677 255 255 255 1.0 46 117 47 117
4609 10.970492703384018 -1.1279823028058629 21.450578800441207 255 255 255 1.0 46 118 47 118
4610 2.882271456410212 -2.3578104575247774 20.67605002697459 255 255 255 1.0 46 119 47 119
4611 11.42304013476217 -1.0911411287219035 22.31915735534763 255 255 255 1.0 46 120 47 120
4612 12.04458891420772 -0.9747391735588888 22.10549116231793 255 255 255 1.0 46 121 47 121
4613 2.8490234457729624 -2.346696371122148 21.80083736495539 255 255 255 1.0 46 122 47 122
4614 10.618353875069602 -1.105654972751186 21.446647483810107 255 255 255 1.0 46 123 47 123
4615 11.395693192628224 -0.9893164085549868 21.778808092052756 255 255 255 1.0 46 124 47 124
4616 11.164313454977684 -1.0367562139577324 22.16378945251621 255 255 255 1.0 46 125 47 125
4617 11.163357094586027 -0.9788502875455457 21.594133114315245 255 255 255 1.0 46 126 47 126
4618 3.3390778442236257 -2.179518929916097 22.349535682905127 255 255 255 1.0 46 127 47 127
4619 10.906694539647287 -0.9046906554353878 21.138193148867494 255 255 255 1.0 46 128 47 128
4620 1.5234815680949172 -2.1212778230848137 21.2404814548806 255 255 255 1.0 46 129 47 129
4621 2.795883722867966 -1.847696542652038 20.18869769869218 255 255 255 1.0 46 130 47 130
4622 6.477479970847428 -1.8354662118779972 28.6478144628307 255 255 255 1.0 46 131 47 131
4623 2.2607779412984645 -1.8990828899526642 20.799215020331683 255 255 255 1.0 46 132 47 132
4624 1.4886890673753725 -1.928984749758404 20.73135202456524 255 255 255 1.0 46 133 47 133
4625 11.251905528649155 -0.6750430543818866 21.291929131278607 255 255 255 1.0 46 134 47 134
4626 2.8997273289454966 -1.7591655600207519 21.50386082120746 255 255 255 1.0 46 135 47 135
4627 11.299912395642455 -0.6838289160734599 22.496966046487792 255 255 255 1.0 46 136 47 136
4628 2.843271985703906 -1.6478131850097095 20.978410074857162 255 255 255 1.0 46 137 47 137
4629 11.02502608784692 -0.6089251548468025 20.79005556741162 255 255 255 1.0 46 138 47 138
4630 10.914098734640516 -0.6515379422857781 21.33060301934825 255 255 255 1.0 46 139 47 139
4631 11.297684637515506 -0.6264668790219645 22.49767957100943 255 255 255 1.0 46 140 47 140
4632 10.898635311554685 -0.5793482559008151 21.274788253341068 255 255 255 1.0 46 141 47 141
4633 1.3821240685313885 -1.4770152476131895 20.285583418215012 255 255 255 1.0 46 142 47 142
4634 2.5761484211635226 -1.3057036449807116 20.262382587945105 255 255 255 1.0 46 143 47 143
4635 -0.589182039975374 -1.6022164025786692 20.39193705452521 255 255 255 1.0 46 144 47 144
4636 11.006083524203639 -0.38334155634992095 21.80238849929872 255 255 255 1.0 46 145 47 145
4637 1.88188768736438 -1.2760872054755132 21.051665006739373 255 255 255 1.0 46 146 47 146
4638 11.071834055994414 -0.3561477759719758 22.010141639238608 255 255 255 1.0 46 147 47 147
4639 2.482482512415848 -1.2173318600185916 22.022427499699376 255 255 255 1.0 46 148 47 148
4640 6.903811695434447 -1.0690995921863573 29.74824279287466 255 255 255 1.0 46 149 47 149
4641 10.538797171417237 -0.3685461672743584 22.20590603987283 255 255 255 1.0 46 150 47 150
4642 3.521319408492654 -0.9604319193689905 19.955181557806227 255 255 255 1.0 46 151 47 151
4643 2.9595117179507415 -1.0439326574302636 20.635437615563987 255 255 255 1.0 46 152 47 152
4644 10.656584423125128 -0.28774030275135903 20.850351788932876 255 255 255 1.0 46 153 47 153
4645 2.6432873288668137 -1.0700427086649473 21.6729008026818 255 255 255 1.0 46 154 47 154
4646 3.067663427961075 -1.071690018927879 22.51012885075227 255 255 255 1.0 46 155 47 155
4647 2.967066359824063 -1.0195651007125581 21.792786693092975 255 255 255 1.0 46 156 47 156
4648 7.268111057590303 -0.9088872024101008 29.460873646997047 255 255 255 1.0 46 157 47 157
4649 3.3170511771889544 -0.8137088818794188 20.13450340901379 255 255 255 1.0 46 158 47 158
4650 2.311200033213727 -0.9301225189233442 20.459666479528078 255 255 255 1.0 46 159 47 159
4651 3.644751070361571 -0.7243918476929302 20.610589653974586 255 255 255 1.0 46 160 47 160
4652 3.5143087311286654 -0.7902857661665528 22.228260707030003 255 255 255 1.0 46 161 47 161
4653 3.372364409977818 -0.8061135886396997 22.668808072026323 255 255 255 1.0 46 162 47 162
4654 6.168189602371075 -0.8036867312261304 29.322192634140237 255 255 255 1.0 46 163 47 163
4655 5.709509267079173 -0.8665011939003239 29.966402374640833 255 255 255 1.0 46 164 47 164
4656 3.323755524435121 -0.7143923341685982 20.110946177083335 255 255 255 1.0 46 165 47 165
4657 2.641887839031695 -0.8110476600476327 21.576654320906123 255 255 255 1.0 46 166 47 166
4658 2.681316049578313 -0.8318721921832442 22.314999066355515 255 255 255 1.0 46 167 47 167
4659 8.212426082583965 -0.5197876043724633 27.528840321274828 255 255 255 1.0 46 168 47 168
4660 3.4045731931004264 -0.6905414403949343 20.941514183835565 255 255 255 1.0 46 169 47 169
4661 2.9441175980761316 -0.7435847305749793 21.725655183250034 255 255 255 1.0 46 170 47 170
4662 4.270984460980663 -0.6325678023048179 22.1281821834306 255 255 255 1.0 46 171 47 171
4663 10.538481148601623 -0.09714731857466434 21.51578257715668 255 255 255 1.0 46 172 47 172
4664 3.6514514288031688 -0.65311816932133 21.822940276477965 255 255 255 1.0 46 173 47 173
4665 1.1902087361790277 -0.8349518119201875 21.851575905353403 255 255 255 1.0 46 174 47 174
4666 3.9066679504344797 -0.5388116615043876 20.200355536324313 255 255 255 1.0 46 175 47 175
4667 3.1352604114563327 -0.5620480216968012 20.740309332291353 255 255 255 1.0 46 176 47 176
4668 5.358870666669207 -0.6292574969223946 28.698137912608924 255 255 255 1.0 46 177 47 177
4669 8.084248627319198 -0.3963660017400783 27.785922863647773 255 255 255 1.0 46 178 47 178
4670 1.1616745088442382 -0.737678281611628 21.857063108576412 255 255 255 1.0 46 179 47 179
4671 7.86334234870502 -0.377321479815936 28.311682739476367 255 255 255 1.0 46 180 47 180
4672 1.0511885008028725 -0.6445514790291763 21.344482631036094 255 255 255 1.0 46 181 47 181
4673 3.242039076223866 -0.5369170484581892 22.97017817900531 255 255 255 1.0 46 182 47 182
4674 11.25413989999123 0.08212164495677271 22.074627924414266 255 255 255 1.0 46 183 47 183
4675 3.5711825932801973 -0.4186593608606134 21.156639080081337 255 255 255 1.0 46 184 47 184
4676 7.747565466576128 -0.31999670034572464 28.59818537313519 255 255 255 1.0 46 185 47 185
4677 4.232429971268015 -0.35079332825736625 21.223656235858734 255 255 255 1.0 46 186 47 186
4678 3.1895583447928764 -0.4555193578937511 21.92856787425546 255 255 255 1.0 46 187 47 187
4679 11.536250794060848 0.18437136823852526 21.36512136140971 255 255 255 1.0 46 188 47 188
4680 8.682807205229924 -0.0755973413718556 28.415260566425758 255 255 255 1.0 46 189 47 189
4681 2.8124936731105192 -0.25869922570137693 21.77607585601206 255 255 255 1.0 46 190 47 190
4682 3.1394420639826444 -0.24132848068226112 21.915913687489134 255 255 255 1.0 46 191 47 191
4683 10.532854307384502 0.21737479084131053 21.658568396348375 255 255 255 1.0 46 192 47 192
4684 3.8001450183639722 -0.10183625523188194 19.78781167602927 255 255 255 1.0 46 193 47 193
4685 3.374979466860273 -0.10413611243404935 20.27701753728263 255 255 255 1.0 46 194 47 194
4686 0.7182531147188035 -0.22698229880551646 20.568213340141202 255 255 255 1.0 46 195 47 195
4687 2.7676185096543393 -0.09985455387569242 20.57120395355104 255 255 255 1.0 46 196 47 196
4688 10.835572143223752 0.30784438573356815 22.50382770129312 255 255 255 1.0 46 197 47 197
4689 2.935353592833554 -0.096195253002595 21.489305551988956 255 255 255 1.0 46 198 47 198
4690 1.3881169777932099 -0.154518257068794 21.33116034581186 255 255 255 1.0 46 199 47 199
4691 3.2575216962587996 -0.0755492286007321 22.600437586308367 255 255 255 1.0 46 200 47 200
4692 2.6351432421996575 -0.06334166660494783 21.313957959457852 255 255 255 1.0 46 201 47 201
4693 2.681118802616238 -0.019026815435046807 20.196972411105307 255 255 255 1.0 46 202 47 202
4694 3.0776828782412715 -0.016232657255690893 21.95277595784311 255 255 255 1.0 46 203 47 203
4695 2.6219984050162317 -0.0654409822035241 23.499668347293394 255 255 255 1.0 46 204 47 204
4696 7.330339769997961 0.09080577898389292 29.406558483943023 255 255 255 1.0 46 205 47 205
4697 6.783306648995839 0.09645920318519438 28.713618619050965 255 255 255 1.0 46 206 47 206
4698 3.0674502254095297 0.11260431727180946 20.143207720636145 255 255 255 1.0 46 207 47 207
4699 3.9126555596005725 0.18770434158060137 23.20218611592542 255 255 255 1.0 46 208 47 208
4700 4.619469076196241 0.1707746160247557 27.886321356376406 255 255 255 1.0 46 209 47 209
4701 3.7173313308949645 0.23693273588184255 22.19599689508145 255 255 255 1.0 46 210 47 210
4702 11.14797116785925 0.5307533686396033 21.867465144781104 255 255 255 1.0 46 211 47 211
4703 7.781557418603482 0.33918745412113305 27.657055893626524 255 255 255 1.0 46 212 47 212
4704 6.630650521337187 0.28766324455786896 29.007418839882135 255 255 255 1.0 46 213 47 213
4705 7.253572357093017 0.33723757714881575 28.785603507608858 255 255 255 1.0 46 214 47 214
4706 10.987305468161347 0.5764974673387968 22.404672114507925 255 255 255 1.0 46 215 47 215
4707 6.338095557416593 0.3451968038764305 28.94994445872061 255 255 255 1.0 46 216 47 216
4708 7.26546181699673 0.3783386315898725 29.087886449424794 255 255 255 1.0 46 217 47 217
4709 7.098922751678034 0.3692745051931467 29.37371502362009 255 255 255 1.0 46 218 47 218
4710 6.590211413504851 0.3444652360300169 29.959595151556286 255 255 255 1.0 46 219 47 219
4711 10.499936204627698 0.5881766015098899 21.652489401412453 255 255 255 1.0 46 220 47 220
4712 6.936416916508241 0.41112213651793494 29.046861317220785 255 255 255 1.0 46 221 47 221
4713 7.056884165804397 0.4152113326373519 29.062129354075385 255 255 255 1.0 46 222 47 222
4714 6.301638757435286 0.452780014231133 28.205760840794618 255 255 255 1.0 46 223 47 223
4715 3.2639046553320026 0.43543886127666864 22.261913210122998 255 255 255 1.0 46 224 47 224
4716 7.7598801841141265 0.5772234516725322 27.64677646753242 255 255 255 1.0 46 225 47 225
4717 10.926474302816827 0.7111300116777973 21.81171503688223 255 255 255 1.0 46 226 47 226
4718 11.060328737251014 0.7274773561692383 22.1506942648416 255 255 255 1.0 46 227 47 227
4719 6.39271453660339 0.5739737290975916 29.286981627266197 255 255 255 1.0 46 228 47 228
4720 2.944905254503408 0.5405889204680475 20.158271145736578 255 255 255 1.0 46 229 47 229
4721 3.025159842260085 0.5496697366291132 21.074455715649968 255 255 255 1.0 46 230 47 230
4722 12.0235176886131 0.7723216996989756 22.47885093162908 255 255 255 1.0 46 231 47 231
4723 10.661116840159144 0.7465699916084325 22.168051607014906 255 255 255 1.0 46 232 47 232
4724 6.788859850279537 0.6381939988053142 29.938445217526187 255 255 255 1.0 46 233 47 233
4725 10.881592897946984 0.7687205701136189 21.688105709555977 255 255 255 1.0 46 234 47 234
4726 6.1699979690289055 0.6354742624960228 29.92153793116667 255 255 255 1.0 46 235 47 235
4727 6.30653570367479 0.638634387262895 29.928610956661142 255 255 255 1.0 46 236 47 236
4728 6.822113677117678 0.6517381528350311 29.63999940451094 255 255 255 1.0 46 237 47 237
4729 6.9865359696201255 0.6555505379879508 29.64666395654075 255 255 255 1.0 46 238 47 238
4730 11.05361798122298 0.79286534039982 22.153279809656915 255 255 255 1.0 46 239 47 239
4731 3.412524724810595 0.6424303373546291 23.256570189491413 255 255 255 1.0 46 240 47 240
4732 5.270004169786577 0.728824734681078 27.266895949284923 255 255 255 1.0 46 241 47 241
4733 2.2848690511712655 0.7412028853106636 22.504818370017855 255 255 255 1.0 46 242 47 242
4734 5.641140054085963 0.7926962152740782 27.94318556274754 255 255 255 1.0 46 243 47 243
4735 6.101324353282656 0.8116422573015061 23.251686277196082 255 255 255 1.0 46 244 47 244
4736 2.405919176028676 0.7896425059631771 20.254790877826782 255 255 255 1.0 46 245 47 245
4737 2.3248567775823314 0.7771138077926736 20.871741376840454 255 255 255 1.0 46 246 47 246
4738 6.327080005647969 0.8594515753974777 27.823730711629317 255 255 255 1.0 46 247 47 247
4739 2.9352353936630307 0.8420496857421113 20.540898375660664 255 255 255 1.0 46 248 47 248
4740 2.9494873741073433 0.8543105919625337 21.087131454447047 255 255 255 1.0 46 249 47 249
4741 3.812451833614378 0.8677025810823659 23.110051359494975 255 255 255 1.0 46 250 47 250
4742 11.96304512639366 0.9638986636913409 22.67452343115974 255 255 255 1.0 46 251 47 251
4743 7.375429545481431 0.951385909890023 29.339232160778618 255 255 255 1.0 46 252 47 252
4744 7.208190668677714 0.9395860551942089 29.63067383571226 255 255 255 1.0 46 253 47 253
4745 2.76150880310752 0.8744180843253864 20.774498183157657 255 255 255 1.0 46 254 47 254
4746 6.497620327441122 0.9406694886925879 28.25471959670375 255 255 255 1.0 46 255 47 255
4747 5.7920399602141535 1.0081051074140899 26.63966495188689 255 255 255 1.0 46 256 47 256
4748 10.910345238918477 1.0312487081681392 21.831857057012503 255 255 255 1.0 46 257 47 257
4749 5.1532280241584365 1.0623073453225345 26.652990300645587 255 255 255 1.0 46 258 47 258
4750 5.401180268247482 1.0984607546139096 26.853812976521862 255 255 255 1.0 46 259 47 259
4751 6.492971113885023 1.110807637793813 28.597230895023735 255 255 255 1.0 46 260 47 260
4752 6.558582373776507 1.1130768638834287 28.948147812921196 255 255 255 1.0 46 261 47 261
4753 11.538974064365236 1.0862157916002149 22.349983001559668 255 255 255 1.0 46 262 47 262
4754 3.408709302387447 1.104840604748484 22.770450218121866 255 255 255 1.0 46 263 47 263
4755 2.645967227242198 1.1146465114891146 20.86238450953444 255 255 255 1.0 46 264 47 264
4756 3.7643310289464447 1.1300926371592 23.123526544031375 255 255 255 1.0 46 265 47 265
4757 3.745640416960695 1.1328606608771792 23.49176373110804 255 255 255 1.0 46 266 47 266
4758 6.10213749366185 1.1671724996805268 28.49330222038763 255 255 255 1.0 46 267 47 267
4759 4.99156371524851 1.1931460099806916 27.078237156788166 255 255 255 1.0 46 268 47 268
4760 2.2357799656722723 1.1673863111249247 21.506772560884034 255 255 255 1.0 46 269 47 269
4761 2.498837035568087 1.1569577467259642 21.790324956491027 255 255 255 1.0 46 270 47 270
4762 5.1233549823060835 1.148466179672865 21.666381266615122 255 255 255 1.0 46 271 47 271
4763 11.677576113780841 1.159409933207049 21.91071328465573 255 255 255 1.0 46 272 47 272
4764 5.025435418188382 1.2349928490253221 26.53845543876609 255 255 255 1.0 46 273 47 273
4765 3.885777543205101 1.2132302575904885 22.3109682766731 255 255 255 1.0 46 274 47 274
4766 6.365783221581225 1.2505173238056027 26.591827946464914 255 255 255 1.0 46 275 47 275
4767 0.9493281264776667 1.2107073923743594 20.357257869274363 255 255 255 1.0 46 276 47 276
4768 3.739281819105411 1.23946170991055 23.786825039034643 255 255 255 1.0 46 277 47 277
4769 4.59496118316024 1.234226907867919 23.781499597877925 255 255 255 1.0 46 278 47 278
4770 11.478435895455224 1.1848207064513159 22.25264875525831 255 255 255 1.0 46 279 47 279
4771 7.606942964678917 1.24927046965863 26.185891642537772 255 255 255 1.0 46 280 47 280
4772 6.893985990547388 1.271788232028422 26.917588679258124 255 255 255 1.0 46 281 47 281
4773 6.664131360026014 1.3058022429109999 27.935323693471883 255 255 255 1.0 46 282 47 282
4774 8.0268934135799 1.2887905457232678 27.387119645838887 255 255 255 1.0 46 283 47 283
4775 1.5565402768175205 1.2530338675383788 20.156440831084435 255 255 255 1.0 46 284 47 284
4776 5.405154445787406 1.321692201125661 26.3155886134437 255 255 255 1.0 46 285 47 285
4777 5.5329641774144465 1.3308678197125359 28.30253936685422 255 255 255 1.0 46 286 47 286
4778 6.848246722266605 1.334205747695902 28.65991834711846 255 255 255 1.0 46 287 47 287
4779 5.092429160178128 1.3509510996319236 26.606085612560303 255 255 255 1.0 46 288 47 288
4780 4.768908390217694 1.381418185822518 26.907560175285205 255 255 255 1.0 46 289 47 289
4781 5.394422031315908 1.373643312378459 26.85609057465513 255 255 255 1.0 46 290 47 290
4782 3.1932399764220016 1.3054199086542517 20.05497898102506 255 255 255 1.0 46 291 47 291
4783 3.0496544805877304 1.357189359252551 21.389947022947503 255 255 255 1.0 46 292 47 292
4784 3.7802656785313453 1.398167676855999 22.665744009791524 255 255 255 1.0 46 293 47 293
4785 11.088504948821008 1.2972788551089602 22.278404160465474 255 255 255 1.0 46 294 47 294
4786 6.479069802226171 1.458801592771693 29.24532802492102 255 255 255 1.0 46 295 47 295
4787 3.8187726473720933 1.40582475134741 22.444099748426698 255 255 255 1.0 46 296 47 296
4788 6.952895317625291 1.47907046072718 29.587149070375155 255 255 255 1.0 46 297 47 297
4789 3.836578802587975 1.4266524299713186 22.34611901744301 255 255 255 1.0 46 298 47 298
4790 6.168760332959804 1.493768691317473 28.13042661909729 255 255 255 1.0 46 299 47 299
4791 11.154609121025075 1.314495057834132 21.525770662401438 255 255 255 1.0 46 300 47 300
4792 11.452580093588162 1.3280225351715074 21.83575322746927 255 255 255 1.0 46 301 47 301
4793 10.842340324089397 1.3429912713754797 22.610044900913316 255 255 255 1.0 46 302 47 302
4794 11.328495350429336 1.3394565248936356 21.976575254153833 255 255 255 1.0 46 303 47 303
4795 11.253818455170252 1.3498820161453915 22.5711347459981 255 255 255 1.0 46 304 47 304
4796 11.037682700160454 1.3626638233308412 22.18858195174676 255 255 255 1.0 46 305 47 305
4797 6.229475058098534 1.5269632329566498 26.007979249022142 255 255 255 1.0 46 306 47 306
4798 5.996386613652414 1.544223395875258 26.79924464194205 255 255 255 1.0 46 307 47 307
4799 5.369675902376442 1.5804186591440659 26.842831439437468 255 255 255 1.0 46 308 47 308
4800 5.563542853754646 1.6238493959351201 28.30841880028276 255 255 255 1.0 46 309 47 309
4801 10.966977920658353 1.3747637403226431 20.65238317501515 255 255 255 1.0 46 310 47 310
4802 6.549620701524482 1.623268842038838 28.24167776347025 255 255 255 1.0 46 311 47 311
4803 7.904907281831633 1.6902324482295625 27.926371378967332 255 255 255 1.0 46 312 47 312
4804 3.25823632726848 1.7200881396323526 21.600266178287544 255 255 255 1.0 46 313 47 313
4805 6.578755424213585 1.8188120254732552 30.153433005086555 255 255 255 1.0 46 314 47 314
4806 11.581398886455084 1.5514644744677148 23.27802802493051 255 255 255 1.0 46 315 47 315
4807 12.157821683358168 1.5295562032501324 23.141492051686825 255 255 255 1.0 46 316 47 316
4808 11.446458285083052 1.522062953567237 21.40563132872103 255 255 255 1.0 46 317 47 317
4809 11.845509871008815 1.533907251312189 21.928190476859314 255 255 255 1.0 46 318 47 318
4810 4.071498035778998 1.7714515812777012 20.124465056316463 255 255 255 1.0 46 319 47 319
4811 10.773312174644257 1.5893045269612065 22.087527700637597 255 255 255 1.0 46 320 47 320
4812 12.018427899808637 1.5549744478470686 22.222749218835848 255 255 255 1.0 46 321 47 321
4813 6.452660627443867 1.936805271024921 29.533725817315347 255 255 255 1.0 46 322 47 322
4814 4.5525270885394225 1.7603289786126575 19.48492605039013 255 255 255 1.0 46 323 47 323
4815 10.792353689171872 1.5651247892946951 20.75895683367498 255 255 255 1.0 46 324 47 324
4816 11.497373775888718 1.597183064280296 22.917407831938753 255 255 255 1.0 46 325 47 325
4817 11.127563726942158 1.5958308631494453 20.8086097564795 255 255 255 1.0 46 326 47 326
4818 11.404930436519463 1.6317311117581894 21.30236748976653 255 255 255 1.0 46 327 47 327
4819 11.81370556352513 1.684464204863711 23.720079121613256 255 255 255 1.0 46 328 47 328
4820 11.456547891869159 1.6475022936676769 21.46025591847016 255 255 255 1.0 46 329 47 329
4821 11.772423030404271 1.6324081673051367 21.403227645291512 255 255 255 1.0 46 330 47 330
4822 11.79192402048431 1.6328968601526004 21.45350045848646 255 255 255 1.0 46 331 47 331
4823 11.549276743686644 1.6565550651290968 21.691628157637943 255 255 255 1.0 46 332 47 332
4824 11.553420869348855 1.6597113297257664 22.080394734629202 255 255 255 1.0 46 333 47 333
4825 4.240742840045047 1.9144621870261553 19.82871034744906 255 255 255 1.0 46 334 47 334
4826 11.640857688675197 1.7112458158990482 23.084409845647816 255 255 255 1.0 46 335 47 335
4827 12.075494518450734 1.6542427364577972 21.716045967145924 255 255 255 1.0 46 336 47 336
4828 11.178503266967933 1.7228491713180416 22.475603290653222 255 255 255 1.0 46 337 47 337
4829 11.106696371322851 1.7249552050554153 22.70072723487344 255 255 255 1.0 46 338 47 338
4830 10.776242248919917 1.7077092877650926 20.74806265860199 255 255 255 1.0 46 339 47 339
4831 10.688285093279404 1.6659671412467802 18.88443012978506 255 255 255 1.0 46 340 47 340
4832 10.953028042299241 1.736991189679036 20.829993630974194 255 255 255 1.0 46 341 47 341
4833 11.119222967420608 1.735965549371626 20.83946765449573 255 255 255 1.0 46 342 47 342
4834 11.286071716981457 1.7351902216438855 20.861643920138516 255 255 255 1.0 46 343 47 343
4835 11.161217328506064 1.7613849089984204 21.060115145542223 255 255 255 1.0 46 344 47 344
4836 11.173982524681358 1.7623834315180624 21.114806931670206 255 255 255 1.0 46 345 47 345
4837 11.18752741611122 1.7633362063926912 21.169316537768324 255 255 255 1.0 46 346 47 346
4838 11.212537715354351 1.7715011757849215 21.249461039120618 255 255 255 1.0 46 347 47 347
4839 11.55470545167043 1.7613649890078722 21.278791097584776 255 255 255 1.0 46 348 47 348
4840 12.106031995062432 1.808787577263335 23.309840049224633 255 255 255 1.0 46 349 47 349
4841 11.888284142871363 1.7767033961178489 21.6900405487302 255 255 255 1.0 46 350 47 350
4842 12.083423285863773 1.767711864596873 21.740931290299464 255 255 255 1.0 46 351 47 351
4843 12.108227592507331 1.7678505594095146 21.78811100065825 255 255 255 1.0 46 352 47 352
4844 11.72048954638462 1.7972748884171708 22.05414479474479 255 255 255 1.0 46 353 47 353
4845 11.791295809881076 1.8524446940134385 23.69936040691215 255 255 255 1.0 46 354 47 354
4846 11.636830992868795 1.7915375204415163 21.51058877324621 255 255 255 1.0 46 355 47 355
4847 12.095017018096113 1.790879748667008 22.069236854917133 255 255 255 1.0 46 356 47 356
4848 12.041544957179145 1.8002707492794565 22.270404920187357 255 255 255 1.0 46 357 47 357
4849 12.245486985560033 1.7897272745117532 22.29376339145513 255 255 255 1.0 46 358 47 358
4850 12.140762526089606 1.8139693899398093 22.657690829886263 255 255 255 1.0 46 359 47 359
4851 11.612269309770397 1.8644626464499097 23.308618743466145 255 255 255 1.0 46 360 47 360
4852 12.085848768670816 1.8298103384459516 22.838043845573296 255 255 255 1.0 46 361 47 361
4853 12.262138510597257 1.825801373643811 23.02105485707492 255 255 255 1.0 46 362 47 362
4854 8.065447161714282 2.23368454054417 27.355172988222616 255 255 255 1.0 46 363 47 363
4855 8.240248137082435 2.234396409436582 27.68278094547468 255 255 255 1.0 46 364 47 364
4856 10.980918357974579 1.7676317098985805 18.809687141151198 255 255 255 1.0 46 365 47 365
4857 11.095171290052216 1.909568206446614 20.787689808950653 255 255 255 1.0 46 366 47 366
4858 11.943127821663682 1.8991001932996456 21.81250797993801 255 255 255 1.0 46 367 47 367
4859 10.71516883590647 1.859763458787475 18.72165943274368 255 255 255 1.0 46 368 47 368
4860 11.215672245992028 1.9415191628890502 21.306876613035058 255 255 255 1.0 46 369 47 369
4861 7.780935920135868 2.391446196022068 27.261995348096054 255 255 255 1.0 46 370 47 370
4862 10.750005928643725 1.972511792797322 20.73936825833351 255 255 255 1.0 46 371 47 371
4863 10.839273845915015 2.0210761164617703 21.23664473838826 255 255 255 1.0 46 372 47 372
4864 11.400791887372398 1.9869139064614771 21.36072557640591 255 255 255 1.0 46 373 47 373
4865 11.747583711308476 1.9918266295167097 22.116611901735517 255 255 255 1.0 46 374 47 374
4866 12.040314239488453 2.022106227765615 22.539798041635528 255 255 255 1.0 46 375 47 375
4867 9.42502770928192 2.3330039356529784 25.873071139700293 255 255 255 1.0 46 376 47 376
4868 6.392986715366068 2.3096500678705976 20.008914595786507 255 255 255 1.0 46 377 47 377
4869 11.678860539890033 2.0532207263727864 22.313182698095417 255 255 255 1.0 46 378 47 378
4870 7.38672531017781 2.608822191029253 28.367922036499763 255 255 255 1.0 46 379 47 379
4871 11.955874694618233 2.0206642752320274 21.50418713661496 255 255 255 1.0 46 380 47 380
4872 11.778410990394269 2.0617085452782478 21.85010398607046 255 255 255 1.0 46 381 47 381
4873 11.413545011838536 2.1043549333073033 22.214341760399655 255 255 255 1.0 46 382 47 382
4874 10.758430951904423 2.1069315921462453 20.900070997870653 255 255 255 1.0 46 383 47 383
4875 11.25783933137192 2.0675446401407807 20.868684649346335 255 255 255 1.0 46 384 47 384
4876 11.01238172884476 2.0053570204546323 18.612273546938713 255 255 255 1.0 46 385 47 385
4877 7.328071940548696 2.412967378914875 21.3143033553862 255 255 255 1.0 46 386 47 386
4878 10.98898220612492 2.1297503664860358 21.187790328514232 255 255 255 1.0 46 387 47 387
4879 11.007494850307069 2.137723614754992 21.241461504669488 255 255 255 1.0 46 388 47 388
4880 11.038078065889996 2.1400029727451773 21.351456007854903 255 255 255 1.0 46 389 47 389
4881 11.810190312611914 2.0879288046159226 21.559772599212025 255 255 255 1.0 46 390 47 390
