# 3D point list with one line of data per point:
#   POINT3D_ID, X, Y, Z, R, G, B, ERROR, TRACK[]
1597 11.022953149903117 3.959349380809766 23.266709281012908 255 255 255 1.0 39 14 40 0
1598 16.18288484202234 2.0026247456909276 21.206305942361148 255 255 255 1.0 41 0 42 0 43 0 44 0
1599 6.188874063877947 3.8460209354754764 27.46022862047146 255 255 255 1.0 41 1 42 1
1600 19.726684793187225 3.3155503538436406 29.339978065647138 255 255 255 1.0 41 2 42 2
1601 5.986897554928177 3.4194712912185863 27.864504300349928 255 255 255 1.0 41 3 42 3
1602 16.39115982091414 2.090333975136864 19.920718570344835 255 255 255 1.0 42 4 43 1
1603 5.63366589889724 5.645949517444514 21.001680319617677 255 255 255 1.0 42 5 43 2
1604 15.523216894188792 -3.53674090696906 20.86617757663259 255 255 255 1.0 43 3 44 1
1605 7.492415548675229 -0.6743701528481594 19.969392595558002 255 255 255 1.0 43 4 44 2
1606 16.110839006758198 2.0072165844929066 20.870967571894774 255 255 255 1.0 43 5 44 3
1607 7.089616251893124 2.447424025200455 19.5075109551918 255 255 255 1.0 43 6 44 4
1608 7.039292459055113 2.2541520461992355 19.5768536000209 255 255 255 1.0 43 7 44 5
1609 16.002787328094545 2.1167389060932194 19.237402398565465 255 255 255 1.0 44 6 44 7 45 0
1610 6.197529732917735 3.5404272250383166 26.041088531210182 255 255 255 1.0 44 8 45 1
1611 6.580756209598188 6.211550116241835 26.533657729129228 255 255 255 1.0 44 9 45 2
1612 16.21177395425672 2.403976243897536 20.855771373698694 255 255 255 1.0 44 10 45 3
1613 16.752828936734243 2.2624513578498404 20.89943646732835 255 255 255 1.0 44 11 45 4
1614 14.58592388642612 -0.483071918664416 18.69600519761186 255 255 255 1.0 46 0 46 1 47 0
1615 14.612423121287856 -1.2887801314616592 17.624450172628368 255 255 255 1.0 46 2 47 1
1616 14.778127356155377 -1.3617891548109857 20.23988820740822 255 255 255 1.0 46 3 47 2
1617 14.796537879549007 -0.37258101524892456 20.16319626162593 255 255 255 1.0 46 4 47 3
1618 15.134615013453352 -1.7444854906258467 24.68307414344958 255 255 255 1.0 46 5 46 6 46 7 47 4
1619 14.443531973289167 -0.42674044572912145 19.323190085854595 255 255 255 1.0 46 8 47 5
1620 13.910687280468622 -0.6775798693366205 14.679812866513311 255 255 255 1.0 46 9 47 6
1621 14.503513299926826 -1.3076660315856317 17.214247457259116 255 255 255 1.0 46 10 47 7
1622 14.410257290114723 -0.17749309630236623 26.24089469248038 255 255 255 1.0 48 0 49 0 50 0
1623 21.34064941275023 -2.095104061928133 24.821376394748157 255 255 255 1.0 48 1 49 1
1624 12.900790521621396 -0.05157155296859899 22.67719455186262 255 255 255 1.0 48 2 49 2 50 1 51 0 52 0 53 0
1625 14.211808935323234 -0.6302021466315193 26.49850944471965 255 255 255 1.0 48 3 49 3 50 2
1626 3.2119439984129228 -3.0597470042446795 29.558432497354882 255 255 255 1.0 48 4 49 4
1627 16.51892747206727 -1.482569429947393 25.215881938267103 255 255 255 1.0 48 5 49 5
1628 21.73540476889493 -1.8144932338785658 25.23022470050391 255 255 255 1.0 48 6 49 6
1629 22.401064353583905 -1.8185392072574256 25.05735718060202 255 255 255 1.0 48 7 49 7
1630 19.713094522833604 -2.329606238922598 25.054427438771935 255 255 255 1.0 48 8 49 8
1631 13.147660491553742 -1.2654442298047752 22.725012669677078 255 255 255 1.0 48 9 49 9
1632 13.378737794361648 -0.5526293620124747 25.9389826154981 255 255 255 1.0 48 10 49 10
1633 14.05130559667306 0.04472941624213282 25.681260981543893 255 255 255 1.0 48 11 49 11 50 3 51 1
1634 12.18504103007544 -0.3439316917167409 20.786465489859093 255 255 255 1.0 48 12 49 12 50 4
1635 16.346312008958428 -1.8983976754105552 24.772716316310344 255 255 255 1.0 48 13 49 13 50 5 51 2
1636 14.303412885193232 -0.2580966984822758 26.305659015345363 255 255 255 1.0 48 14 49 14 50 6
1637 12.85222302253107 -0.062320220596777255 23.603475599893848 255 255 255 1.0 48 15 49 15 50 7 51 3 52 1 53 1 54 0
1638 17.512882006039398 0.07302664884507867 30.10100177316749 255 255 255 1.0 48 16 49 16
1639 12.372170081058407 -0.5801297452309067 23.357803300189154 255 255 255 1.0 48 17 49 17 50 8 51 4 52 2 53 2 54 1
1640 5.2643003894865 -4.47571370364575 30.51169026662276 255 255 255 1.0 48 18 49 18
1641 13.351723254746872 -0.16682606739484426 23.804553757579917 255 255 255 1.0 48 19 49 19 50 9 51 5 52 3
1642 20.53621739220828 -2.1343113126636264 25.021374104077317 255 255 255 1.0 48 20 49 20
1643 12.518481978307317 3.532140360507964 25.36783951517814 255 255 255 1.0 48 21 49 21
1644 20.339837982820978 -1.5303849402955676 24.743728294889475 255 255 255 1.0 48 22 49 22
1645 12.894613798406949 -0.11166380736030791 21.943656923938182 255 255 255 1.0 48 23 49 23
1646 20.669068397687667 -2.4057750446639554 25.897973512074678 255 255 255 1.0 48 24 49 24 50 10
1647 12.711062365066105 3.6870261859013778 25.514418340863983 255 255 255 1.0 48 25 49 25
1648 13.841445792592301 -0.015869152342244966 21.96362937234938 255 255 255 1.0 48 26 49 26
1649 20.149385133866268 -2.2198618652417976 25.070012630362093 255 255 255 1.0 48 27 49 27
1650 15.939183626964482 -1.444663897511938 26.0170804644168 255 255 255 1.0 48 28 49 28
1651 14.679365239989814 -0.7276535853546412 26.480692484792296 255 255 255 1.0 48 29 49 29 50 11
1652 14.766691845356235 -0.7317672233228673 26.40062229714099 255 255 255 1.0 48 30 49 30 50 12
1653 15.523214220593111 -1.6891322997883518 25.437155970945653 255 255 255 1.0 48 31 49 31 50 13 51 6
1654 20.430229069666343 -2.119025504146317 25.077925836821535 255 255 255 1.0 48 32 49 32
1655 5.540088101471471 0.590423886484344 28.646357223732483 255 255 255 1.0 48 33 49 33
1656 12.728363295409537 -1.2368687227583406 23.55943412921892 255 255 255 1.0 48 34 49 34 50 14 51 7 52 4 53 3 54 2
1657 13.479169279950373 0.3341821876230817 27.260168036441183 255 255 255 1.0 48 35 49 35
1658 13.20419794992891 0.08800440483791541 26.132016189715063 255 255 255 1.0 48 36 49 36 50 15
1659 3.7049089417323806 -1.2402558502239862 29.57158923434153 255 255 255 1.0 48 37 49 37 50 16
1660 13.156309712843795 -1.7256146303619662 25.806468124112506 255 255 255 1.0 48 38 49 38
1661 6.721590430999797 -3.916632460172171 28.822207409831037 255 255 255 1.0 48 39 49 39
1662 13.57782856765887 0.24225807537421154 25.991994146160565 255 255 255 1.0 48 40 49 40 50 17
1663 16.66423567031896 -0.8467251186309513 26.05464311373694 255 255 255 1.0 48 41 49 41
1664 11.768288848667893 -0.6920034486576828 25.203076738649823 255 255 255 1.0 48 42 49 42
1665 3.4791760504593023 -3.0952158004460553 29.461293562841597 255 255 255 1.0 48 43 49 43
1666 1.3835463286763088 -4.297776009427383 27.06566935377135 255 255 255 1.0 48 44 49 44
1667 3.2147361306949245 -1.7865764142088723 29.296983802038962 255 255 255 1.0 48 45 49 45
1668 15.856746609603055 -1.1700087686059202 25.748704062751198 255 255 255 1.0 48 46 49 46 50 18 51 8
1669 11.853185440365385 4.84087372202028 26.04614652235046 255 255 255 1.0 48 47 49 47
1670 6.9555488399482455 -4.155820339638774 28.681465331867116 255 255 255 1.0 48 48 49 48
1671 14.096130651472473 -0.06757095596189694 25.859838512044764 255 255 255 1.0 48 49 49 49
1672 2.5233173714686394 -2.3824817375968284 26.497127554929087 255 255 255 1.0 48 50 49 50 50 19
1673 12.96136997599854 -0.16361450680468825 20.604329857804835 255 255 255 1.0 48 51 48 52 49 51
1674 15.375862885939545 -0.7440279899390257 25.946464843300877 255 255 255 1.0 48 53 49 52
1675 14.322848795267094 -0.6904556218419873 25.88174398155773 255 255 255 1.0 48 54 49 53
1676 14.982607411365706 -0.20766745203266185 26.214291254585575 255 255 255 1.0 48 55 49 54
1677 13.191598363425692 -0.6348878949101064 25.92486727485303 255 255 255 1.0 48 56 49 55
1678 16.69160341687315 -1.1639526736470798 25.69181845045464 255 255 255 1.0 48 57 49 56 50 20
1679 22.884462688181426 -1.7389162882088867 25.258387534128797 255 255 255 1.0 48 58 49 57
1680 16.43917216911047 -1.1933073673944645 25.01626553482488 255 255 255 1.0 48 59 49 58
1681 13.39339409441208 0.19385190847056508 25.47645809084499 255 255 255 1.0 48 60 49 59
1682 12.80023923774989 -0.04930777598203617 16.745022933081078 255 255 255 1.0 48 61 49 60
1683 14.242303528375567 -0.006671472521133522 25.939589403769595 255 255 255 1.0 48 62 49 61
1684 12.290483578980837 -0.420404254106303 23.678625344248278 255 255 255 1.0 48 63 49 62 50 21 51 9 52 5
1685 17.48197464054554 -0.185436346517727 29.99825878791144 255 255 255 1.0 48 64 49 63
1686 2.4637439646890282 -3.3518357300467194 29.937275042979604 255 255 255 1.0 48 65 49 64
1687 2.476486050271076 -2.7076711591213867 29.488127070026295 255 255 255 1.0 48 66 49 65
1688 16.22193684035154 -0.8107188606302801 26.612100957125577 255 255 255 1.0 48 67 49 66 50 22
1689 13.839525788186394 -0.4218226260071757 18.95658680401949 255 255 255 1.0 48 68 48 69 49 67
1690 12.62005390657148 -0.44944634372575126 25.785669132953682 255 255 255 1.0 48 70 49 68
1691 22.65989221951148 -1.9008348489090745 24.945078174852124 255 255 255 1.0 48 71 49 69
1692 5.746870671297521 0.48052201501796776 28.68876784213579 255 255 255 1.0 48 72 49 70
1693 15.917934600384338 -1.1137492048206388 25.720959803235758 255 255 255 1.0 48 73 49 71 50 23 51 10
1694 13.184260415371831 -1.2391856842782627 26.252839586558267 255 255 255 1.0 48 74 49 72 50 24
1695 19.904529232573363 -2.502776046165675 25.253100098853967 255 255 255 1.0 48 75 49 73
1696 16.035936073285963 -1.9478302286908058 26.48896355478344 255 255 255 1.0 48 76 49 74 50 25
1697 14.518644322728974 -0.6699385025316691 25.99584560658768 255 255 255 1.0 48 77 49 75
1698 18.223682930781344 0.22907718857103293 30.020947136850513 255 255 255 1.0 48 78 49 76
1699 2.5187451867147024 -2.566113501282646 29.801335764924463 255 255 255 1.0 48 79 49 77 50 26
1700 2.4303849500147536 -3.2272911115080576 29.699531429578574 255 255 255 1.0 48 80 49 78
1701 7.227526014299299 -3.687848753623488 29.562621547367662 255 255 255 1.0 48 81 49 79
1702 13.05970156541034 -0.011686635528163696 25.827153281870167 255 255 255 1.0 48 82 49 80
1703 15.614450110720695 -0.4808406246223744 30.489119407409177 255 255 255 1.0 48 83 49 81
1704 14.802810005847123 -0.5123879398725698 25.895166016499758 255 255 255 1.0 48 84 49 82
1705 3.9769761257005336 -0.018480773609892236 28.929988781954552 255 255 255 1.0 48 85 49 83
1706 3.369571232089466 -1.0434279847367476 29.29912663267889 255 255 255 1.0 48 86 49 84
1707 20.0311081189521 -2.4904659911049603 25.062995746308005 255 255 255 1.0 48 87 49 85
1708 16.092662235741866 -0.11827632860362346 31.86312233473688 255 255 255 1.0 48 88 49 86
1709 20.74283145060212 -2.138639810369737 25.0132533114786 255 255 255 1.0 48 89 49 87
1710 3.987730834935573 -3.2256688511782006 29.53596426233989 255 255 255 1.0 48 90 49 88
1711 3.310025708611973 -2.814106765085012 29.684752790258056 255 255 255 1.0 48 91 49 89
1712 20.454471232435026 -2.2113257913933415 25.149300528993976 255 255 255 1.0 48 92 49 90
1713 21.847870958213385 -1.7467875337372778 24.609516707715606 255 255 255 1.0 48 93 49 91
1714 13.168322782420226 -0.9961814202549419 26.245239782485275 255 255 255 1.0 48 94 49 92 50 27
1715 17.968518870798484 0.07454980248295993 29.89020270627685 255 255 255 1.0 48 95 49 93
1716 6.699794393727604 -2.7310528996279966 28.33686721800188 255 255 255 1.0 48 96 49 94
1717 20.155680157595704 -1.137113857148542 25.0877398839398 255 255 255 1.0 48 97 49 95
1718 12.86778761798638 -0.10536108757672295 21.92675437542076 255 255 255 1.0 48 98 49 96
1719 17.609510108950982 0.06022835093235019 30.06018192718712 255 255 255 1.0 48 99 49 97
1720 3.5916673804834556 -2.641861157188415 29.34171686253474 255 255 255 1.0 48 100 49 98
1721 16.76753183768003 -0.8391417544032652 26.017315344321617 255 255 255 1.0 48 101 49 99
1722 12.152096507063387 3.6440358670157407 25.714081795750197 255 255 255 1.0 48 102 49 100
1723 4.362970786152552 1.9789670486058881 30.79246700975657 255 255 255 1.0 48 103 49 101
1724 12.635353010574889 3.520928846178756 25.38498687203954 255 255 255 1.0 48 104 49 102
1725 16.056900120828455 3.309172171169505 25.74570824212078 255 255 255 1.0 48 105 49 103
1726 13.090912848212717 -0.38843581643056724 19.713209796606833 255 255 255 1.0 48 106 49 104 50 28
1727 6.007536806455355 -4.625701424443458 28.969503333211758 255 255 255 1.0 48 107 49 105
1728 3.1587125887919796 -1.7044302979592516 29.487078560846253 255 255 255 1.0 48 108 49 106
1729 4.859425714958035 -0.4245035648594627 29.175759219729937 255 255 255 1.0 48 109 49 107
1730 3.6372904688032284 -2.7256465376937054 29.49291496730519 255 255 255 1.0 48 110 49 108
1731 4.008736188324333 -1.629956187719848 29.548267999256193 255 255 255 1.0 48 111 49 109
1732 3.5351477784023877 -1.1792264614939352 29.240843790884764 255 255 255 1.0 48 112 49 110
1733 7.549996462276077 -2.9226559334479836 29.294129842710653 255 255 255 1.0 48 113 49 111
1734 20.49125234587856 -2.332104501646594 25.236974410459787 255 255 255 1.0 48 114 49 112
1735 15.954791598825869 -0.7843800369640662 26.12460523965451 255 255 255 1.0 48 115 49 113
1736 14.73199671578092 -0.2781764870731086 23.773947699116377 255 255 255 1.0 48 116 49 114
1737 14.274947788935703 -0.7057187164558256 25.93554113842233 255 255 255 1.0 48 117 49 115
1738 15.947193204221485 3.2742345241491595 25.77590223987962 255 255 255 1.0 48 118 49 116
1739 5.975071412059351 -4.774266577196159 28.94523129619786 255 255 255 1.0 48 119 49 117
1740 13.095488523126214 -0.3869223227368995 25.98594210960306 255 255 255 1.0 48 120 49 118
1741 12.406259814152246 3.514156254489624 25.404332524145335 255 255 255 1.0 48 121 49 119
1742 20.042545452178786 -1.8016551775100031 25.092776553436366 255 255 255 1.0 48 122 49 120
1743 3.3270344841346198 -2.944887208153986 29.746660704834238 255 255 255 1.0 48 123 49 121
1744 6.54467461402971 0.11854856134762047 29.41350283831836 255 255 255 1.0 48 124 49 122
1745 18.588436100086643 -0.4486582735347022 30.323499706781902 255 255 255 1.0 48 125 49 123
1746 14.01088178366592 0.005668188312121994 25.75496511641582 255 255 255 1.0 48 126 49 124
1747 7.50442371304923 1.1473213586636333 29.90278243572254 255 255 255 1.0 48 127 49 125
1748 2.9628351135473663 -1.972802164768476 29.226264324215016 255 255 255 1.0 48 128 49 126
1749 3.4881956160539476 0.8596249578997467 30.798664796878878 255 255 255 1.0 48 129 49 127
1750 18.011468026048934 -0.032374022253091495 30.141227223485995 255 255 255 1.0 48 130 49 128
1751 13.848354638615744 2.167057772427882 30.30161826486609 255 255 255 1.0 48 131 49 129
1752 3.0545737250627147 -3.4121351239187074 29.651208620766045 255 255 255 1.0 48 132 49 130
1753 12.709511180467501 2.9875421104685946 29.98850686454489 255 255 255 1.0 48 133 49 131
1754 15.620914844655013 0.18298199028477774 29.47234564146244 255 255 255 1.0 48 134 49 132
1755 4.648952337018322 -2.8611083152591426 29.93248073562466 255 255 255 1.0 48 135 49 133
1756 2.7201000037344265 -2.678480990303979 29.563211235161972 255 255 255 1.0 48 136 49 134
1757 16.635940170561994 -0.4241133473407639 28.766258778923643 255 255 255 1.0 48 137 49 135
1758 14.529288549978409 -0.7379681893631984 25.929211680988 255 255 255 1.0 48 138 49 136
1759 16.721307531623992 -0.8755100605631888 26.112470317207084 255 255 255 1.0 48 139 49 137
1760 3.2164313148070085 -1.3304590120086464 29.056622402520325 255 255 255 1.0 48 140 49 138
1761 3.514639217342461 -1.0229152892522873 29.113343337788994 255 255 255 1.0 48 141 49 139
1762 13.438573571429563 1.982233143452681 30.597960167604448 255 255 255 1.0 48 142 49 140
1763 18.053487549283645 0.473592278957713 29.966063369411156 255 255 255 1.0 48 143 49 141
1764 14.839514488553462 -0.6588240947980526 26.91458629513418 255 255 255 1.0 49 142 50 29
1765 15.461769492941851 -0.3310608850561384 26.88943958414955 255 255 255 1.0 49 143 50 30
1766 17.040466592032004 -1.457370242313695 25.103708230966866 255 255 255 1.0 49 144 50 31 51 11
1767 12.731654748334217 -0.5583478585452389 26.63553327696201 255 255 255 1.0 49 145 50 32
1768 15.569447205415095 -0.3728827933000003 29.690797456684276 255 255 255 1.0 49 146 50 33
1769 14.23297177186538 -0.4638652622792797 26.652690927126905 255 255 255 1.0 49 147 50 34
1770 3.5571773484254523 -3.040194016852437 30.04162332098157 255 255 255 1.0 49 148 50 35
1771 1.349659152959015 -3.6542528751001004 26.68560171358516 255 255 255 1.0 49 149 50 36
1772 1.8254174509143914 -3.267665751402235 26.687807757533843 255 255 255 1.0 49 150 50 37
1773 20.752747855328185 -1.8659960481245734 26.117983304880738 255 255 255 1.0 49 151 50 38
1774 2.991451590292259 2.763275400201245 31.32678181137492 255 255 255 1.0 49 152 50 39
1775 12.204803092127817 -0.4654960763539534 18.576270770824618 255 255 255 1.0 49 153 50 40
1776 16.92459809311018 -2.1551315251396885 26.20850414600434 255 255 255 1.0 49 154 50 41
1777 15.56438483108447 -1.4807669347151688 26.785832305983394 255 255 255 1.0 49 155 50 42
1778 16.369020611457234 -1.3314020107988813 27.00963840025661 255 255 255 1.0 49 156 50 43
1779 5.732221472153855 -5.823998690182247 29.08818861413722 255 255 255 1.0 49 157 50 44
1780 14.654454340878463 -0.5376351563926475 26.94416483790404 255 255 255 1.0 49 158 50 45
1781 16.654632688208366 2.1508433060174617 29.93587568087985 255 255 255 1.0 49 159 50 46
1782 12.637807936246384 -0.5288720627382505 26.57572070911276 255 255 255 1.0 49 160 50 47
1783 13.888951289475244 -1.570962156680078 26.75016729707121 255 255 255 1.0 49 161 50 48
1784 11.553820516347102 0.1571496197481217 19.95395299300052 255 255 255 1.0 49 162 50 49 51 12 52 6
1785 11.3956477396759 -0.4824364194576338 13.865194488870147 255 255 255 1.0 49 163 50 50
1786 13.716610333242972 -0.45272047738907106 26.93021897477752 255 255 255 1.0 49 164 50 51
1787 5.770493695020553 -4.726647022688922 29.00887848258042 255 255 255 1.0 49 165 50 52
1788 13.267191675996878 -1.5740252029866137 25.73105819697894 255 255 255 1.0 49 166 50 53 51 13
1789 13.547712796332853 -0.6756625251184801 26.68079778676469 255 255 255 1.0 49 167 50 54
1790 3.760614050162423 -3.2708147733517072 29.805056666274975 255 255 255 1.0 49 168 50 55
1791 13.376584849667521 -1.6370175988869373 26.631225728609866 255 255 255 1.0 49 169 50 56
1792 12.252663622724015 1.31245534773962 31.82280939429503 255 255 255 1.0 49 170 50 57
1793 14.542762170890354 -0.5278287940001026 26.982535898886137 255 255 255 1.0 49 171 50 58
1794 4.197366096916965 -1.827424619538113 30.29682161619952 255 255 255 1.0 49 172 50 59
1795 20.577804597971106 -1.2345758511069131 26.11642483729431 255 255 255 1.0 49 173 50 60
1796 16.249825375520416 -1.6797346252979741 27.627353585970422 255 255 255 1.0 49 174 50 61
1797 11.964860390895899 -0.14417844791999201 17.257834876435222 255 255 255 1.0 49 175 50 62
1798 2.058491317170739 2.1017405791722954 30.50552436049828 255 255 255 1.0 49 176 50 63 51 14
1799 3.4921694301265536 -2.962304072196126 29.861151663451906 255 255 255 1.0 49 177 50 64
1800 2.3001271059810118 -2.6533789434928945 25.948027507945397 255 255 255 1.0 49 178 50 65 51 15
1801 10.750371403003916 -0.0656550963302525 13.417536953330595 255 255 255 1.0 49 179 50 66
1802 4.269345017610497 2.703844950553966 31.827847742434244 255 255 255 1.0 49 180 50 67
1803 13.811341987996869 -0.012640348921642404 24.271269485294052 255 255 255 1.0 49 181 49 182 50 68
1804 14.382236109449977 3.23269746336299 26.59603086180802 255 255 255 1.0 49 183 50 69
1805 2.3773320692284874 -2.306752108469832 26.719654101513633 255 255 255 1.0 49 184 50 70
1806 13.039695892497997 -1.0849088037058663 25.74731226993193 255 255 255 1.0 49 185 50 71 51 16
1807 2.7000759980640545 -3.402847178700766 29.842316483488954 255 255 255 1.0 49 186 50 72
1808 14.246865138028038 1.6126418034051522 32.1490346094105 255 255 255 1.0 49 187 50 73
1809 16.33254737275765 -1.7628142042986215 26.922427166751742 255 255 255 1.0 49 188 50 74
1810 3.9087586276939894 0.7011559623913861 30.91941779533262 255 255 255 1.0 49 189 50 75
1811 5.051284237249665 4.770743082505979 28.47748023488116 255 255 255 1.0 49 190 50 76
1812 11.494714166809317 1.4098807692631155 32.25888398519462 255 255 255 1.0 49 191 50 77
1813 2.4961570055804585 -1.0344271932116909 26.735287418003907 255 255 255 1.0 49 192 50 78
1814 14.856435159115449 -0.5114658341923053 26.81048256319136 255 255 255 1.0 49 193 50 79
1815 11.952897295889889 0.13651620440208007 18.666540718567724 255 255 255 1.0 49 194 50 80
1816 12.4926097586773 2.8711137843990264 31.848611510479294 255 255 255 1.0 49 195 50 81
1817 2.5642030964619824 -0.9581058216197772 26.666276953160512 255 255 255 1.0 49 196 50 82
1818 4.176526500572206 2.5362247178700588 32.001765196145804 255 255 255 1.0 49 197 50 83
1819 13.51546199453291 -0.47922407718869764 23.416388295120672 255 255 255 1.0 50 84 51 17 52 7
1820 13.312994773613326 -0.5144786665083444 24.866055335174288 255 255 255 1.0 50 85 51 18
1821 12.053317344446658 -0.2591358799605943 18.752734653894663 255 255 255 1.0 50 86 51 19 51 20 52 8
1822 2.5961540197203936 -2.254824966462091 25.249710127967944 255 255 255 1.0 50 87 51 21
1823 10.441920676577148 2.0199527132111204 25.934738121724774 255 255 255 1.0 50 88 51 22 52 9 53 4
1824 13.136964803305423 -0.12856692461347005 21.284948353413817 255 255 255 1.0 50 89 51 23
1825 15.270682862395663 -1.4287349203459727 22.545343861598184 255 255 255 1.0 50 90 51 24 52 10
1826 12.435970918377341 3.693584686361436 25.275353285582746 255 255 255 1.0 50 91 51 25
1827 12.70184376817886 -1.169642112922998 23.599042939434195 255 255 255 1.0 50 92 51 26 52 11 53 5 54 3
1828 13.709858576754721 -0.23563355314059736 22.908418132959262 255 255 255 1.0 50 93 51 27
1829 4.076824590956374 -2.307198746683379 24.384676377310313 255 255 255 1.0 50 94 51 28 52 12
1830 14.739096105701142 -0.6815622735649433 25.059421320215534 255 255 255 1.0 50 95 51 29
1831 12.378532575929984 -0.09674608603148377 22.509152353221815 255 255 255 1.0 50 96 51 30 52 13 53 6
1832 12.390858994845658 0.04949480427966372 23.38279095364181 255 255 255 1.0 50 97 51 31 52 14
1833 12.83895267059515 -0.4083281281162238 20.093834205681325 255 255 255 1.0 50 98 51 32 52 15
1834 14.206246868590828 -0.37857061915369317 23.378740379129585 255 255 255 1.0 50 99 51 33 52 16
1835 18.918758377897674 -2.135270132102661 23.76261293950515 255 255 255 1.0 50 100 51 34
1836 11.181183122779357 -0.5306658590098416 22.95555825862956 255 255 255 1.0 50 101 51 35 52 17 53 7 54 4
1837 15.020820153943381 -1.3259711024989578 24.85831044172901 255 255 255 1.0 50 102 51 36
1838 2.265223449753458 2.816151704881762 30.402160211862693 255 255 255 1.0 50 103 51 37
1839 2.152707689167447 -3.2090396509481254 25.041067175424566 255 255 255 1.0 50 104 51 38
1840 14.004479246086527 -0.03859665518156585 24.882154566110074 255 255 255 1.0 50 105 51 39
1841 19.55303123837516 -1.9455593049604605 23.678421591188535 255 255 255 1.0 50 106 51 40
1842 12.80969779169605 -1.0917999710052733 24.8950351691143 255 255 255 1.0 50 107 51 41
1843 13.730464806869552 -0.6259806937850863 24.972602859994012 255 255 255 1.0 50 108 51 42
1844 19.79420419211972 -1.9729682967271844 23.56494117385318 255 255 255 1.0 50 109 51 43
1845 12.35322981354614 0.1054024717614459 21.3242628842575 255 255 255 1.0 50 110 51 44
1846 1.6631243427452713 2.60779126611979 29.403284653963613 255 255 255 1.0 50 111 51 45
1847 18.352569325996555 -1.852226678545908 22.194498350408082 255 255 255 1.0 50 112 51 46 52 18
1848 9.75467515692 -1.1433632579636452 26.815674757981995 255 255 255 1.0 50 113 51 47 52 19 53 8 54 5
1849 15.268446126899132 -1.1411787436282987 22.640002876507474 255 255 255 1.0 50 114 51 48 52 20
1850 9.710776143912053 -1.0751840208203782 27.780831271401734 255 255 255 1.0 50 115 51 49
1851 10.22547210098282 -0.4821553967654328 27.692486013128924 255 255 255 1.0 50 116 51 50
1852 12.862289241720996 -1.6206905233000761 24.732315456137325 255 255 255 1.0 50 117 51 51
1853 13.374084508542042 -0.18579516473336566 24.92525707545829 255 255 255 1.0 50 118 51 52
1854 9.927930680261996 2.62564029941956 29.515127190486577 255 255 255 1.0 50 119 51 53
1855 9.707373942384056 -2.1328214602955002 25.80832252997176 255 255 255 1.0 50 120 51 54 52 21 53 9 54 6
1856 4.27040817310046 -1.4783953600945783 27.938054837793302 255 255 255 1.0 50 121 51 55
1857 12.085160258686399 3.674417576457067 25.122989460381646 255 255 255 1.0 50 122 51 56
1858 15.478147178917897 -1.4292690250912539 24.82058230924511 255 255 255 1.0 50 123 51 57
1859 11.889761495156836 4.382188889314198 26.27673623173867 255 255 255 1.0 50 124 51 58
1860 10.397001290465894 2.1101976909192537 29.44105626825831 255 255 255 1.0 50 125 51 59
1861 9.917019500764649 -0.46820556248993167 25.58131899423236 255 255 255 1.0 50 126 51 60 52 22
1862 10.022871874871369 0.12329493236007744 28.006767631223195 255 255 255 1.0 50 127 51 61
1863 4.47490101463644 0.18817662530050164 27.71760075666557 255 255 255 1.0 50 128 51 62
1864 10.899054034959907 4.228951599714177 25.04886217638119 255 255 255 1.0 50 129 51 63 52 23
1865 12.398176250848156 -0.4104951032426286 24.90186015057556 255 255 255 1.0 50 130 51 64
1866 4.4236172176459325 0.2663368455757882 27.783620464782626 255 255 255 1.0 50 131 51 65
1867 12.610350598942981 -0.556984418496269 24.851074124068518 255 255 255 1.0 50 132 51 66
1868 10.155098451858231 0.16442505220149872 27.8892623791117 255 255 255 1.0 50 133 51 67
1869 2.209935783920802 -0.18334819426408316 25.517684292212465 255 255 255 1.0 50 134 51 68
1870 16.033939327224424 -1.3917672067271585 24.141406025086095 255 255 255 1.0 50 135 51 69
1871 9.969082436806247 2.1537452038715825 26.072476529439296 255 255 255 1.0 50 136 51 70 52 24 53 10
1872 4.7979062919173625 -1.464387853721412 28.018021568746313 255 255 255 1.0 50 137 51 71
1873 14.419841155377764 -0.60371093594164 23.43450759583721 255 255 255 1.0 50 138 51 72 52 25
1874 12.93649933969787 0.20864080867237544 24.630143921722926 255 255 255 1.0 50 139 51 73
1875 9.185738583734267 -1.8686270310672384 27.482166881514985 255 255 255 1.0 50 140 51 74
1876 9.837299371743784 -1.0015926380758875 28.19785833014407 255 255 255 1.0 50 141 51 75
1877 13.577715075589973 -0.46656284382123303 24.94154478155367 255 255 255 1.0 50 142 51 76
1878 9.5521648853858 -1.0817879926587977 25.980541074749084 255 255 255 1.0 50 143 51 77 52 26
1879 4.2519573467655425 1.8755562046486498 29.809824936747592 255 255 255 1.0 50 144 51 78
1880 3.0915105696763843 -2.310200489486643 27.717543785535103 255 255 255 1.0 50 145 51 79
1881 9.842358682978965 -2.2036507933862284 27.284355118154632 255 255 255 1.0 50 146 51 80
1882 19.512098842679134 -2.066335305354154 23.77365600590857 255 255 255 1.0 50 147 51 81
1883 18.41950425534229 -1.8383425113744192 22.177330294101765 255 255 255 1.0 50 148 51 82 52 27
1884 13.741519197594954 3.643110991032507 25.345652490920397 255 255 255 1.0 50 149 51 83
1885 12.31297718592505 -0.5579367071325506 24.845196778835973 255 255 255 1.0 50 150 51 84
1886 9.26914122953718 -2.0460738795485636 27.492473964219872 255 255 255 1.0 50 151 51 85
1887 16.59102245181413 -0.568525510308847 28.736746237936924 255 255 255 1.0 50 152 51 86
1888 10.458150874541396 -0.5170009260888876 24.51053727269056 255 255 255 1.0 50 153 51 87
1889 9.61371852715002 -1.4009587225869125 27.895846086182956 255 255 255 1.0 50 154 51 88
1890 11.257437339038834 4.264808619325841 26.52590076348566 255 255 255 1.0 50 155 51 89
1891 16.727325847702467 -0.05317679194697979 28.82442728285112 255 255 255 1.0 50 156 51 90
1892 12.54202220669937 -0.7109795059087108 25.49108919442916 255 255 255 1.0 50 157 51 91
1893 1.3898154887198055 0.6752910528632795 29.621024849526805 255 255 255 1.0 50 158 51 92
1894 11.365485793891338 4.193996432231488 26.5678806008262 255 255 255 1.0 50 159 51 93
1895 1.5696928167015392 3.585736448744121 30.113410042082048 255 255 255 1.0 50 160 51 94
1896 4.37561302131075 0.21796844336379584 27.78682316490064 255 255 255 1.0 50 161 51 95
1897 3.3736808434799777 1.6082421413978616 27.64303255157644 255 255 255 1.0 50 162 51 96 52 28
1898 4.541341810762646 1.7619351839009458 29.837850051912724 255 255 255 1.0 50 163 51 97
1899 10.852441076875332 4.467719670882932 26.407969038048822 255 255 255 1.0 50 164 51 98
1900 12.375130615863108 3.6748390089844856 25.178066218420824 255 255 255 1.0 50 165 51 99
1901 4.715411636894243 2.1493778707935154 29.73118208875419 255 255 255 1.0 50 166 51 100
1902 10.798440079118787 2.4018161343314577 28.563709116991898 255 255 255 1.0 50 167 51 101
1903 12.815622826690351 -1.5794173792215125 24.703105793405808 255 255 255 1.0 50 168 51 102
1904 1.6950790773238382 4.660962351585986 30.44510216688441 255 255 255 1.0 50 169 51 103
1905 11.948176589712599 -0.253698379621992 16.397958227489617 255 255 255 1.0 50 170 51 104
1906 10.036001623396098 -0.3119145484257912 27.393491728061846 255 255 255 1.0 50 171 51 105
1907 12.777789377652777 -0.35201288171702605 25.0286852241614 255 255 255 1.0 50 172 51 106
1908 11.085364833967843 4.2899191949338515 26.665149426229807 255 255 255 1.0 50 173 51 107
1909 11.967054295257508 -0.35356843954508155 21.70715156152901 255 255 255 1.0 51 108 52 29 53 11
1910 14.823700414317345 2.26466507048406 28.532660259196227 255 255 255 1.0 51 109 52 30
1911 4.035838061367103 -2.280477804459855 23.423467057068912 255 255 255 1.0 51 110 52 31
1912 10.113804349175549 -0.3010023829848598 13.430282536577451 255 255 255 1.0 51 111 52 32
1913 12.375731925718796 -0.9499897330548662 21.665587888005575 255 255 255 1.0 51 112 52 33
1914 2.057160496428545 -2.906918784727729 22.917426950642152 255 255 255 1.0 51 113 52 34 53 12 54 7
1915 12.085766274892785 -0.07216426430883705 21.809002742558285 255 255 255 1.0 51 114 52 35
1916 2.5978565262180635 -2.7394658528489804 21.38262957170685 255 255 255 1.0 51 115 52 36
1917 14.290809597804339 3.350070349389888 24.015971664362652 255 255 255 1.0 51 116 52 37
1918 12.977257721844936 -0.12675048265234018 21.860609141626856 255 255 255 1.0 51 117 52 38
1919 12.502152403568351 0.22794051067608753 22.17755216521182 255 255 255 1.0 51 118 52 39
1920 1.5362656980039022 3.057041628097134 25.608630085257197 255 255 255 1.0 51 119 52 40
1921 8.953471038271523 -1.8326026480722106 23.159196809950007 255 255 255 1.0 51 120 52 41 53 13
1922 2.2868950642053796 -2.891695512521778 21.44615678941607 255 255 255 1.0 51 121 52 42
1923 3.851670601374784 -1.948694082355718 23.37556752808864 255 255 255 1.0 51 122 52 43
1924 14.288705188751177 3.453039067797027 24.224261648992083 255 255 255 1.0 51 123 52 44
1925 15.421185393091118 0.15026006240194117 24.957333596297477 255 255 255 1.0 51 124 52 45
1926 16.181436438614515 -0.03968596669429221 24.86591529550311 255 255 255 1.0 51 125 52 46
1927 17.469511385472554 -1.2988089049460947 20.75031795468012 255 255 255 1.0 51 126 52 47
1928 17.941052971274573 -0.06707988909075216 24.77282781893402 255 255 255 1.0 51 127 52 48
1929 9.645634538793018 -0.6498935771657013 25.524000367279186 255 255 255 1.0 51 128 52 49 53 14 54 8
1930 13.915846257223077 2.272605979898212 27.655838148477734 255 255 255 1.0 51 129 52 50 53 15
1931 12.32954072740966 -0.0349629401580427 23.038909333549103 255 255 255 1.0 51 130 52 51
1932 12.34133123415743 0.10955134847620442 21.869759816090657 255 255 255 1.0 51 131 52 52
1933 9.836051875094165 2.000274241883765 25.0629433878013 255 255 255 1.0 51 132 52 53
1934 14.729985209742289 2.910019486086627 25.098652277905593 255 255 255 1.0 51 133 52 54
1935 8.801893406286238 -2.049586852965853 23.08130637090288 255 255 255 1.0 51 134 52 55 53 16
1936 12.127032296740902 -0.426032383875506 21.784072171643334 255 255 255 1.0 51 135 52 56
1937 13.46335233081649 -0.14928813770616092 21.945187915444524 255 255 255 1.0 51 136 52 57
1938 2.9640863298686235 1.0412163190082147 25.054092915013122 255 255 255 1.0 51 137 52 58
1939 13.27833985347251 -0.48356235225408806 21.76512323661324 255 255 255 1.0 51 138 52 59 53 17
1940 8.548305920830062 -0.09534539610085206 23.835768525586232 255 255 255 1.0 51 139 52 60
1941 12.008463311439757 0.2556435027379766 22.142301557672717 255 255 255 1.0 51 140 52 61
1942 8.898237778485967 -1.9826168201956198 23.09010950714447 255 255 255 1.0 51 141 52 62 53 18
1943 16.90271013567178 0.25587295817105754 24.610211731727183 255 255 255 1.0 51 142 52 63
1944 9.891904642712857 -0.014270374365816713 25.33070483846756 255 255 255 1.0 51 143 52 64 53 19 54 9
1945 3.7972583422285413 -2.0350800276206336 23.24429945220901 255 255 255 1.0 51 144 52 65
1946 12.580932782430017 -1.0485310442973823 20.340094684054684 255 255 255 1.0 51 145 52 66
1947 17.27353581800734 -1.8715194355126068 20.632202922142802 255 255 255 1.0 51 146 52 67
1948 8.74021281272178 -0.8614536082737674 23.591917662502347 255 255 255 1.0 51 147 52 68
1949 16.91238184858794 -0.6828756855145711 24.240957948186107 255 255 255 1.0 51 148 52 69
1950 12.307966471006289 -0.4356576076147094 21.838830460560875 255 255 255 1.0 51 149 52 70
1951 2.6825282161626247 1.6278118561807489 25.187824413109077 255 255 255 1.0 51 150 52 71
1952 9.29768326984137 1.876328897173261 25.139920191293246 255 255 255 1.0 51 151 52 72
1953 12.616609555044636 0.04099993279823136 23.13086253498898 255 255 255 1.0 51 152 52 73 53 20 54 10
1954 11.320897803361534 -0.1518166399664951 15.201984794776166 255 255 255 1.0 51 153 52 74
1955 11.954954219794644 -0.0652694784040792 21.82675869713949 255 255 255 1.0 51 154 52 75
1956 11.761646856299159 -0.55749644661288 21.611954188542697 255 255 255 1.0 51 155 52 76 53 21
1957 9.259283271265879 1.2876969180197873 24.703431633779182 255 255 255 1.0 51 156 52 77 53 22
1958 8.68922621890045 -1.2772028087883682 23.33819146251611 255 255 255 1.0 51 157 52 78
1959 10.807915719372803 1.497560485932354 24.83489541734056 255 255 255 1.0 51 158 52 79 53 23
1960 17.340217296756972 0.10543442276296336 25.21773722568142 255 255 255 1.0 51 159 52 80
1961 8.958171464934756 0.7019014374746604 24.790416448449413 255 255 255 1.0 51 160 52 81
1962 9.09941864212706 -2.0172887181822388 23.332604527482747 255 255 255 1.0 51 161 52 82
1963 11.699064917987547 0.11392423073606098 20.168434237776633 255 255 255 1.0 51 162 51 163 52 83
1964 14.692630423372979 3.2406169656286874 24.091545000768498 255 255 255 1.0 51 164 52 84
1965 14.84327898530466 2.2623022493154625 28.64446355810586 255 255 255 1.0 51 165 52 85
1966 14.555946873570885 2.2531513651314095 28.542369694048684 255 255 255 1.0 51 166 52 86
1967 14.70808330795988 2.4363158004406498 28.437951591994832 255 255 255 1.0 51 167 52 87
1968 17.32776659866285 1.2990310304440318 25.443575641504168 255 255 255 1.0 51 168 52 88
1969 3.4238594598778893 1.8151404239539035 25.31968519942466 255 255 255 1.0 51 169 52 89
1970 15.246265312575119 -0.0520239497837601 24.875762710108305 255 255 255 1.0 51 170 52 90
1971 3.5847887730884707 -1.3149381696627143 21.906858440810105 255 255 255 1.0 51 171 52 91
1972 3.7549147759805717 -2.347721348946511 23.37909598507347 255 255 255 1.0 51 172 52 92 53 24
1973 11.526495456866991 -0.8244230050958987 18.401533271336355 255 255 255 1.0 51 173 51 174 52 93
1974 14.61298634529232 2.9522128355708763 24.930873538332893 255 255 255 1.0 51 175 52 94
1975 10.019658515510262 0.7062379254097407 24.544562629385204 255 255 255 1.0 51 176 52 95 53 25
1976 17.40332430103217 -1.7069765092105154 20.6012820888538 255 255 255 1.0 51 177 52 96
1977 8.567425268233706 -1.9109531004790874 23.582971437030306 255 255 255 1.0 51 178 52 97
1978 10.158057844143164 -0.29933360608326853 13.273724126442273 255 255 255 1.0 51 179 52 98
1979 2.9017033409919333 -3.219608992024055 22.80499831760628 255 255 255 1.0 51 180 52 99 53 26 54 11
1980 9.6297613181002 1.972623892586852 25.279721432081516 255 255 255 1.0 51 181 52 100
1981 2.902194779651789 -3.1052782302243793 21.53833553489597 255 255 255 1.0 51 182 52 101 53 27
1982 8.468499068585338 0.10989964954512335 23.635746560169263 255 255 255 1.0 51 183 52 102
1983 9.743289211090179 0.007323744434525385 23.782185313235548 255 255 255 1.0 51 184 52 103
1984 12.171128060503918 -0.44453880681833485 21.76831267122087 255 255 255 1.0 51 185 52 104
1985 12.301935075815216 -0.26977906366630905 21.664413862107885 255 255 255 1.0 51 186 52 105
1986 4.592931262756089 -1.8091542295036265 23.339986495784867 255 255 255 1.0 51 187 52 106
1987 8.819971017048491 -1.5487319564643247 23.27215880976588 255 255 255 1.0 51 188 52 107 53 28
1988 3.8688921727059697 1.8920818483142081 25.320328948771202 255 255 255 1.0 51 189 52 108
1989 16.052705505571883 -0.2439919031473036 24.58312845263424 255 255 255 1.0 51 190 52 109
1990 12.658718905857572 2.0862605914997117 26.38128939899778 255 255 255 1.0 51 191 52 110
1991 2.4113448051687545 1.5145146494001795 25.11307261155192 255 255 255 1.0 51 192 52 111
1992 9.187994080257042 -1.6951331096213875 23.351943617753026 255 255 255 1.0 51 193 52 112
1993 15.292346583447653 -0.042243581193839516 24.647173190748592 255 255 255 1.0 51 194 52 113
1994 3.0835767880728375 -0.2437151658244407 21.9461109670015 255 255 255 1.0 51 195 52 114
1995 8.458710915282618 -2.0633196503797646 23.304350106578813 255 255 255 1.0 51 196 52 115
1996 12.777336756218245 -0.34131082367782184 21.792646500729667 255 255 255 1.0 51 197 52 116
1997 11.074011590830308 -0.3590018519046619 21.50724166058762 255 255 255 1.0 51 198 52 117
1998 2.9541441747174493 -0.46418395237359533 21.84144102715262 255 255 255 1.0 51 199 52 118
1999 9.751313507373451 2.019279140204978 25.322663252478858 255 255 255 1.0 51 200 52 119
2000 8.56101634663732 -0.2046227463931493 23.93163422101497 255 255 255 1.0 51 201 52 120
2001 9.678941359486435 2.072124608053615 25.29405140382049 255 255 255 1.0 51 202 52 121
2002 3.8304447352233937 0.184720849631332 24.109042391287414 255 255 255 1.0 51 203 52 122
2003 12.111462593934917 0.2513388896907065 22.121404246166893 255 255 255 1.0 51 204 52 123
2004 13.90444180597053 1.6565563998010457 27.22692687134871 255 255 255 1.0 51 205 52 124 53 29
2005 13.406712887421076 2.673364657384868 28.3105381897605 255 255 255 1.0 51 206 52 125
2006 9.289667464711501 0.895843895121441 24.841046893731168 255 255 255 1.0 51 207 52 126
2007 14.221703569749115 2.544552584940923 28.704875611947777 255 255 255 1.0 51 208 52 127
2008 9.080867410793745 -0.6026877416643405 23.872097927063837 255 255 255 1.0 51 209 52 128
2009 11.110457149827843 1.957444677439895 24.899355637070933 255 255 255 1.0 51 210 52 129 53 30
2010 3.670953752961726 -2.214990037283685 23.572071332042984 255 255 255 1.0 51 211 52 130
2011 8.291013144944301 -0.11481055446539706 23.66826317591144 255 255 255 1.0 51 212 52 131
2012 8.513153349635417 -0.9673876551960071 23.649285385303376 255 255 255 1.0 51 213 52 132
2013 9.189472329551847 -0.7462203726929202 23.923814249254477 255 255 255 1.0 51 214 52 133
2014 -0.6654665795040254 -4.364676389979716 25.36052144543604 255 255 255 1.0 51 215 52 134
2015 8.91674758199272 -1.6449615237807882 23.22013403223478 255 255 255 1.0 51 216 52 135
2016 8.438038118100188 -0.706972261787706 23.525549604188676 255 255 255 1.0 51 217 52 136 53 31
2017 17.522425144922867 -1.014687720222742 20.797951979793435 255 255 255 1.0 51 218 52 137
2018 15.257757713008898 0.42816001017482735 24.92222776473072 255 255 255 1.0 51 219 52 138
2019 14.885156627074617 2.329283187071733 28.581077796133393 255 255 255 1.0 51 220 52 139
2020 8.075409688015052 -2.340411176317134 23.398125230220227 255 255 255 1.0 51 221 52 140
2021 13.311256618698073 -0.5247403509001788 21.831733823456418 255 255 255 1.0 51 222 52 141
2022 16.14669250479593 0.37895928488097985 25.307247952920648 255 255 255 1.0 51 223 52 142
2023 8.5319658494065 1.4075848895880438 25.074172155602213 255 255 255 1.0 51 224 52 143
2024 9.784178743745306 0.27073145752429795 13.592987141006908 255 255 255 1.0 51 225 52 144
2025 9.904863965653302 4.101439410995254 23.3576824177342 255 255 255 1.0 51 226 52 145
2026 11.537197342238233 2.3333903648693615 25.492278049528117 255 255 255 1.0 51 227 52 146
2027 8.11945973280943 -0.0880755067769077 23.685110462702696 255 255 255 1.0 51 228 52 147
2028 12.587849993954137 0.12210310237314359 21.828162527741192 255 255 255 1.0 51 229 52 148 53 32
2029 12.647656418448484 -0.24783888268339496 18.866017683583213 255 255 255 1.0 51 230 52 149
2030 3.5403014112797413 2.1828422953553277 25.48567896783902 255 255 255 1.0 51 231 52 150
2031 10.244812250448492 0.11557088313413931 24.111967704098213 255 255 255 1.0 51 232 52 151
2032 16.152283332686988 -1.0877907011888435 20.92049462648109 255 255 255 1.0 51 233 52 152
2033 15.017981592530543 2.3203286551807136 28.498877636399794 255 255 255 1.0 51 234 52 153
2034 14.81625894626667 2.8759390427869205 25.05128186322638 255 255 255 1.0 51 235 52 154
2035 8.811523304476827 1.187183235517216 24.81464722209122 255 255 255 1.0 51 236 52 155
2036 17.379048533243868 0.6857072756836993 25.239986805072654 255 255 255 1.0 51 237 52 156
2037 8.84123291456016 -1.4037000679402547 23.450249662184522 255 255 255 1.0 51 238 52 157
2038 9.02512027908911 -2.0188479059941433 23.33093990467898 255 255 255 1.0 51 239 52 158
2039 14.639530606549231 2.4169912552612542 28.551543769723054 255 255 255 1.0 51 240 52 159
2040 2.945678787607975 0.4902996311576272 24.728593913696805 255 255 255 1.0 51 241 52 160
2041 8.312479877820998 0.9497338050040766 24.85820061093719 255 255 255 1.0 51 242 52 161
2042 -1.3630711787880134 -1.3446884356825426 25.895795877296543 255 255 255 1.0 51 243 52 162
2043 3.4702231075266017 2.034740132956584 25.327444197577197 255 255 255 1.0 51 244 52 163
2044 4.55955484547951 -1.9126880730361981 23.371213868785432 255 255 255 1.0 51 245 52 164
2045 3.1115319024622305 -1.386512449643345 21.920149794504027 255 255 255 1.0 51 246 52 165
2046 8.144034137437433 -2.385096018153326 23.441669430768606 255 255 255 1.0 51 247 52 166
2047 3.3439797801061104 -2.229929980752511 21.567447140295176 255 255 255 1.0 51 248 52 167
2048 11.999922034451929 1.2945902766211754 24.963625653869336 255 255 255 1.0 51 249 52 168
2049 8.745024498069283 -2.061429413770805 23.097672745545353 255 255 255 1.0 51 250 52 169
2050 12.641856131022603 -0.24238284832096407 23.15313891845131 255 255 255 1.0 52 170 53 33 54 12
2051 14.570163231530392 -1.077760624445542 20.90371011640421 255 255 255 1.0 52 171 53 34
2052 12.668065357771138 -0.38187759026517465 21.556259636872433 255 255 255 1.0 52 172 53 35
2053 12.948324330391834 -0.4369128352791779 23.14450481171434 255 255 255 1.0 52 173 53 36 54 13
2054 7.811234282243805 -2.3604443259033294 23.193522541269566 255 255 255 1.0 52 174 53 37
2055 10.039093320011304 0.9729417584983391 24.57833639512711 255 255 255 1.0 52 175 53 38
2056 9.791432428441809 -0.7671084184053157 25.598579922779336 255 255 255 1.0 52 176 53 39 54 14
2057 12.795490271699398 -0.9756182509409863 21.67625224110607 255 255 255 1.0 52 177 53 40
2058 13.224197613338083 -1.2816662166018378 22.963620402400693 255 255 255 1.0 52 178 53 41
2059 14.075313139479048 -1.0968564874277047 21.556171438934115 255 255 255 1.0 52 179 53 42
2060 11.864649292612915 0.014478257506112459 21.866322217278633 255 255 255 1.0 52 180 53 43
2061 14.044088079853037 -1.398939646934935 21.46015594071868 255 255 255 1.0 52 181 53 44
2062 12.495612188601752 -0.7952771843143454 23.07583939572592 255 255 255 1.0 52 182 53 45 54 15
2063 12.800735159541762 -0.4495667445047963 21.60410207916102 255 255 255 1.0 52 183 53 46
2064 14.106772188819257 -1.051047198982391 21.516514120968463 255 255 255 1.0 52 184 53 47
2065 13.47780730254604 -0.2962152765101713 21.681901210273285 255 255 255 1.0 52 185 53 48
2066 3.383790012040509 -2.2901757113312518 21.67848797801514 255 255 255 1.0 52 186 53 49
2067 12.516693753646368 -0.3645037165801025 21.62248702904891 255 255 255 1.0 52 187 53 50
2068 7.9966596584547 -2.2745721849268543 25.237488289398463 255 255 255 1.0 52 188 53 51 54 16
2069 8.753179633384192 0.805139150891392 26.454171185988827 255 255 255 1.0 52 189 53 52 54 17
2070 12.501323557239438 0.13792746047983478 22.992382657551932 255 255 255 1.0 52 190 53 53 54 18
2071 7.663919325333715 -2.22890689517816 23.0930918118665 255 255 255 1.0 52 191 53 54
2072 12.551133786201827 -0.28716239809686234 23.05119120793882 255 255 255 1.0 52 192 53 55 54 19
2073 -0.7944801746133296 -3.690923843720645 27.975241744233713 255 255 255 1.0 52 193 53 56 54 20
2074 12.30039015005978 -0.3672853817721652 18.65865415100451 255 255 255 1.0 52 194 53 57
2075 12.18880132329409 -0.22224615209887344 23.06752158916237 255 255 255 1.0 52 195 53 58 54 21
2076 12.540414328940457 -1.0553483297151132 23.026269998699156 255 255 255 1.0 52 196 53 59 54 22
2077 9.947052468887494 -0.23782115904304746 25.229978193431002 255 255 255 1.0 52 197 53 60 54 23
2078 3.709305431207864 -2.436102975557729 23.356288150087458 255 255 255 1.0 52 198 53 61
2079 11.851906894822768 -0.7192973320391195 21.469466501596663 255 255 255 1.0 52 199 53 62
2080 2.97854320804043 -2.8350412092080295 21.515282854663706 255 255 255 1.0 52 200 53 63
2081 1.5641747085544937 -2.9498163238604977 22.718728063403738 255 255 255 1.0 52 201 53 64
2082 15.568174602284627 -0.2458063643054724 24.429799423936792 255 255 255 1.0 52 202 53 65
2083 10.294594623788393 0.38623694704479766 24.31447712508138 255 255 255 1.0 52 203 53 66
2084 10.017109567292167 -0.4627094242995354 21.166920288106205 255 255 255 1.0 52 204 53 67
2085 9.212136682898084 -1.4726494723572447 23.25332907859476 255 255 255 1.0 52 205 53 68
2086 9.437481452991468 -1.3822676330067594 25.581385882366725 255 255 255 1.0 52 206 53 69 54 24
2087 8.38222756498528 2.005004290545246 26.543351818432612 255 255 255 1.0 52 207 53 70 54 25
2088 15.147195217376792 -0.40492966473290054 24.13894599647557 255 255 255 1.0 52 208 53 71
2089 14.352835146511078 -0.7050486307091158 21.539816831260996 255 255 255 1.0 52 209 53 72
2090 15.321264036569353 0.022133628071392256 24.49273311562155 255 255 255 1.0 52 210 53 73
2091 8.906114719818865 -1.4730240018227219 23.349978183532702 255 255 255 1.0 52 211 53 74
2092 9.638935781703774 0.9031980642268037 24.442707339846837 255 255 255 1.0 52 212 53 75
2093 12.594439891322413 -1.4621555475375272 23.137269185143463 255 255 255 1.0 52 213 53 76 54 26
2094 12.662801208930345 -0.4441002989577141 21.657303945052835 255 255 255 1.0 52 214 53 77
2095 9.0168493591974 0.6807606563284032 24.11257774461924 255 255 255 1.0 52 215 53 78
2096 2.5848332075627733 -2.685758958562181 21.802726394258485 255 255 255 1.0 52 216 53 79
2097 9.32908153460421 -1.7186494945494581 23.188821251511182 255 255 255 1.0 52 217 53 80
2098 9.914396957964891 2.2062528978408316 24.54807078426324 255 255 255 1.0 52 218 53 81
2099 9.107855964924374 0.7775603422958443 24.339252613172718 255 255 255 1.0 52 219 53 82
2100 3.098400660312298 -0.3035864861548768 21.97671360472245 255 255 255 1.0 52 220 53 83
2101 3.8905699826929254 -2.427943387042307 23.614608426737828 255 255 255 1.0 52 221 53 84
2102 9.368233675333732 1.820873054796244 24.83256463314846 255 255 255 1.0 52 222 53 85
2103 12.592052490313455 -0.4158539695074955 21.586785071471155 255 255 255 1.0 52 223 53 86
2104 8.09739381687842 0.01171628373737951 23.403884585599496 255 255 255 1.0 52 224 53 87
2105 12.782216812654575 -0.8312010440112292 24.010073486824858 255 255 255 1.0 52 225 53 88 54 27
2106 12.116197357146183 -0.4084247206368416 21.517596661594144 255 255 255 1.0 52 226 53 89
2107 12.5169025571907 0.06188160190186717 21.62025236092362 255 255 255 1.0 52 227 53 90
2108 -0.4517962203706726 -4.434486312272369 25.68101066019047 255 255 255 1.0 52 228 53 91
2109 -0.003529462159496455 -3.6071287756044303 25.93730980298327 255 255 255 1.0 52 229 53 92
2110 15.032014510672976 0.3945041920438429 24.583573779734966 255 255 255 1.0 52 230 53 93
2111 -0.10365812764414943 -4.3466130813571 25.727248817214047 255 255 255 1.0 52 231 53 94
2112 12.32304598797896 0.11768939012445516 21.57048926861711 255 255 255 1.0 52 232 53 95
2113 1.0429007757633761 -4.146505686655387 26.27657233525423 255 255 255 1.0 52 233 53 96 54 28 55 0
2114 13.18294962907302 -1.1266378155674994 20.822306941796715 255 255 255 1.0 52 234 53 97
2115 8.575636716922117 1.1907844463779 24.101339761874964 255 255 255 1.0 52 235 53 98
