# 3D point list with one line of data per point:
#   POINT3D_ID, X, Y, Z, R, G, B, ERROR, TRACK[]
1383 0.10438445096603108 -3.9230752548636234 26.729314835248505 255 255 255 1.0 16 209 17 94
1384 -7.621280372417607 -3.788678314880631 29.883557097306856 255 255 255 1.0 16 210 17 95 18 51 19 30 20 22
1385 -1.6827820813054015 -3.5936123396850816 26.77197412883353 255 255 255 1.0 16 211 17 96
1386 0.5178921740760764 -3.8542990716364645 26.635122985695965 255 255 255 1.0 16 212 17 97
1387 0.0007944787325144751 -3.774863757473146 26.76408082995437 255 255 255 1.0 16 213 17 98
1388 0.34246881419244 -3.8762033213175875 26.696806188222013 255 255 255 1.0 16 214 17 99
1389 -8.32879740994942 -3.1737498617397373 29.584502947156174 255 255 255 1.0 16 215 17 100 18 52
1390 -4.465007963987128 -3.4373795923109234 25.586256956227476 255 255 255 1.0 16 216 17 101 18 53 19 31
1391 0.21679380605616955 -4.0528754433223835 27.10394425853535 255 255 255 1.0 16 217 17 102 18 54 19 32 20 23 21 13 22 9
1392 -7.013232376514358 -3.3155942383576065 28.225443439671785 255 255 255 1.0 16 218 17 103 18 55
1393 -0.03561125901862444 -3.9235192318064724 26.69840702915036 255 255 255 1.0 16 219 17 104
1394 -1.9240515433026606 -3.3416459084898578 25.689177727094428 255 255 255 1.0 16 220 17 105 18 56 19 33
1395 -5.5730166482519286 -3.541817475461266 27.93991765165593 255 255 255 1.0 16 221 17 106
1396 -2.556705283505522 -3.5201996405140883 26.902337399594767 255 255 255 1.0 16 222 17 107
1397 0.12096545523577122 -4.9977105331155665 28.85863317021306 255 255 255 1.0 16 223 17 108
1398 -5.805129385269139 -3.4519252355633525 27.945683161488475 255 255 255 1.0 16 224 17 109 18 57 19 34 20 24
1399 -1.707905156858753 -3.6180057093026994 26.711749796849055 255 255 255 1.0 16 225 17 110
1400 -4.8067760012831116 -4.103432476579311 29.622008786903386 255 255 255 1.0 16 226 17 111 18 58 19 35 20 25 21 14 22 10 23 6 24 6 25 1 26 1
1401 -7.670789105901082 -3.63835870289667 29.742220898453866 255 255 255 1.0 16 227 17 112
1402 -1.6562399207044174 -3.858085831122642 26.779075554671575 255 255 255 1.0 16 228 17 113 18 59 19 36 20 26 21 15
1403 -7.755811701799834 -4.008867785067027 29.456651440904093 255 255 255 1.0 16 229 17 114 18 60 19 37
1404 -5.285249532631517 -3.613179076087209 26.55081930663362 255 255 255 1.0 16 230 17 115 18 61
1405 -6.960192831909182 -4.2268950686181705 29.950151315238084 255 255 255 1.0 16 231 17 116 18 62
1406 -5.76008130660691 -3.4367308681064315 28.1604388897266 255 255 255 1.0 16 232 17 117
1407 -6.8004965968718265 -3.4261666958678263 29.204441012855963 255 255 255 1.0 16 233 17 118
1408 -0.839098890355048 -3.590065191620156 26.782924382719454 255 255 255 1.0 16 234 17 119
1409 -4.323171959752631 -3.9086034160528835 26.569411856773186 255 255 255 1.0 16 235 17 120
1410 -1.1983380749881345 -3.7127958008180237 26.763786245641818 255 255 255 1.0 16 236 17 121
1411 -7.306347240158013 -3.4893566065505683 29.549080131929507 255 255 255 1.0 16 237 17 122
1412 -4.920386699269216 -3.684535028612593 27.280012433764515 255 255 255 1.0 16 238 17 123
1413 -0.5754974038582049 -3.799776959516272 26.599258420286557 255 255 255 1.0 16 239 17 124
1414 -7.9502303526310785 -3.8671991464264104 29.955296345979306 255 255 255 1.0 16 240 17 125
1415 -3.108816450042228 -6.20444311606486 31.459410493683897 255 255 255 1.0 16 241 17 126 18 63 19 38
1416 -1.3440458149651013 -7.05937864207614 32.90788967836065 255 255 255 1.0 16 242 17 127
1417 -7.09741802515185 -3.567698311175042 29.227024845197256 255 255 255 1.0 16 243 17 128
1418 -6.203630345491204 -3.2471342035296717 27.186278731622135 255 255 255 1.0 16 244 17 129 18 64 19 39
1419 -7.0991240035812115 -3.5357311185755247 28.977284781801032 255 255 255 1.0 16 245 17 130 18 65 19 40 20 27
1420 -3.51231746177598 -3.632567715521712 25.91075193148933 255 255 255 1.0 16 246 17 131 18 66
1421 -8.30375347268604 -3.494721256570854 30.45059985451937 255 255 255 1.0 16 247 17 132
1422 -3.9825344983263866 -3.8909239942683196 26.69164323785927 255 255 255 1.0 16 248 17 133
1423 0.3743233937783694 -4.626718419260678 28.00019165674874 255 255 255 1.0 16 249 17 134
1424 -4.289450372388791 -3.9176301808661766 26.570866427695435 255 255 255 1.0 16 250 17 135
1425 -2.202572609736792 -3.580356267146525 26.765561471782203 255 255 255 1.0 16 251 17 136
1426 -5.129893676505155 -4.060097358401013 29.96243623102542 255 255 255 1.0 16 252 17 137 18 67 19 41 20 28 21 16 22 11 23 7 24 7 25 2 26 2
1427 -3.473509477721614 -3.8517281483645545 26.6518154155738 255 255 255 1.0 16 253 17 138
1428 -5.529608704124813 -3.5773897864385313 27.88221691349344 255 255 255 1.0 16 254 17 139
1429 -4.28460198663375 -3.6059151369450806 25.642510216795646 255 255 255 1.0 16 255 17 140 18 68 19 42
1430 -5.002833368274727 -3.826414925855341 27.247691335747362 255 255 255 1.0 16 256 17 141
1431 -4.777075600173158 -3.685506050850581 25.932807741569498 255 255 255 1.0 16 257 17 142 18 69
1432 -2.9754957238625916 -3.696494110939015 26.72619368927474 255 255 255 1.0 16 258 17 143
1433 -4.696974444931202 -3.9360805811879547 26.977930953419524 255 255 255 1.0 16 259 17 144
1434 -4.316079851427718 -3.9769611199061248 26.587346839336046 255 255 255 1.0 16 260 17 145
1435 0.30622250413575663 -3.7788275119474264 26.638377824241385 255 255 255 1.0 16 261 17 146
1436 -3.109290668577596 -3.6796926627309854 26.707225275544488 255 255 255 1.0 16 262 17 147
1437 -7.460155759177096 -3.60949905007411 29.633286265890415 255 255 255 1.0 16 263 17 148
1438 -6.826295195364467 -3.437007647225881 29.131398231826587 255 255 255 1.0 16 264 17 149
1439 -1.781784764240989 -3.53332452910267 26.793489654765764 255 255 255 1.0 16 265 17 150
1440 -1.4521411067216214 -7.005802012452805 32.74415702956962 255 255 255 1.0 16 266 17 151
1441 0.7358190837555957 -4.456884410568027 27.26935629450865 255 255 255 1.0 16 267 17 152
1442 -2.401968372568658 -3.7212435887283757 26.65126994054871 255 255 255 1.0 16 268 17 153
1443 -6.396333513688619 -3.5702246099491854 28.595519382901703 255 255 255 1.0 16 269 17 154
1444 -2.663358258642447 -3.797930730084012 26.648411934061297 255 255 255 1.0 16 270 17 155
1445 -1.6822223327560255 -3.6650734373583846 26.758911608845352 255 255 255 1.0 16 271 17 156
1446 -1.344398731951053 -3.555623841590476 26.821907922529903 255 255 255 1.0 16 272 17 157
1447 -5.9873032375652855 -3.3417451640468707 30.7771749449445 255 255 255 1.0 16 273 17 158 18 70 19 43 20 29
1448 -7.458113563369587 -3.548515048103136 30.95964063611752 255 255 255 1.0 16 274 17 159
1449 -7.930901649697178 -3.630875401961382 29.84431991752247 255 255 255 1.0 16 275 17 160
1450 -5.10684562753061 -5.333765374148892 31.98649676313132 255 255 255 1.0 16 276 17 161
1451 -3.859041142255855 -3.8123843587316206 26.631656426245353 255 255 255 1.0 16 277 17 162
1452 -6.144516603575235 -3.3165126310998696 26.99857553914116 255 255 255 1.0 16 278 17 163 18 71 19 44
1453 -3.0697017931238735 1.5142160977173267 26.69390629750718 255 255 255 1.0 16 279 17 164
1454 -8.312180259367203 -3.3584892357779896 31.560024135717686 255 255 255 1.0 16 280 17 165
1455 -0.23659406065598745 -5.471078273561205 30.008295484533782 255 255 255 1.0 16 281 17 166
1456 -2.158678521835536 -3.5934529656233583 26.739019244125114 255 255 255 1.0 16 282 17 167
1457 -5.761967804800873 -3.457766263813936 27.965590164439767 255 255 255 1.0 16 283 17 168
1458 -7.398481840497166 -3.3772510056450322 28.50051072495769 255 255 255 1.0 16 284 17 169 18 72
1459 -0.1728002942601543 -3.6427990735068634 26.72480647628361 255 255 255 1.0 16 285 17 170
1460 -3.534872915015601 -2.42288107490788 28.846292754153254 255 255 255 1.0 16 286 17 171
1461 -8.345853612878475 -3.493680743495501 29.288374939063615 255 255 255 1.0 16 287 17 172 18 73
1462 -0.8118000074951697 -6.132842131170828 31.34181194705823 255 255 255 1.0 16 288 17 173
1463 -3.116713754534027 1.623977560979916 26.594404261167828 255 255 255 1.0 16 289 17 174
1464 -6.01365507197678 -4.925419777401673 31.50724069768076 255 255 255 1.0 16 290 17 175
1465 -3.574382280853394 -3.5172560159560655 25.665425811840635 255 255 255 1.0 16 291 17 176 18 74 19 45
1466 -6.521775671827228 -3.5297248389609104 28.714460244804606 255 255 255 1.0 16 292 17 177
1467 -7.782213526040079 -3.6992904299701777 29.88771120377647 255 255 255 1.0 16 293 17 178
1468 -6.360368151080725 -4.685498088607116 31.221494855569148 255 255 255 1.0 16 294 17 179
1469 -4.365713088541055 -4.300414022125154 26.625447358304264 255 255 255 1.0 16 295 17 180
1470 -7.418189988588531 -3.6455127960613862 29.570220895529786 255 255 255 1.0 16 296 17 181
1471 -4.111763360527655 -2.1354357662321037 27.37110179319108 255 255 255 1.0 16 297 17 182 18 75 18 76 19 46
1472 -4.689431997925868 -3.8829191335432305 26.98783304447562 255 255 255 1.0 16 298 17 183
1473 -7.580597999189095 -3.7594582595375585 30.080772301681854 255 255 255 1.0 16 299 17 184 18 77 19 47 20 30 21 17
1474 0.8028296563096244 -4.013857047012305 26.592448341647877 255 255 255 1.0 16 300 17 185
1475 -6.187747210777024 -4.884030059072767 31.372479080020454 255 255 255 1.0 16 301 17 186
1476 -7.5073094011315025 -3.5193226423310495 29.28081674256474 255 255 255 1.0 16 302 17 187 18 78 19 48 20 31
1477 -6.320722234168937 -4.781918393885838 31.348873242639495 255 255 255 1.0 16 303 17 188
1478 -3.477432076155425 -3.653888831102873 26.734718872293175 255 255 255 1.0 16 304 17 189
1479 -5.528382609794205 -3.6618774312112694 27.77364785516936 255 255 255 1.0 16 305 17 190
1480 -7.634722303448656 -3.973081183352871 31.15636013038224 255 255 255 1.0 16 306 17 191 18 79 19 49 20 32 21 18 22 12 23 8
1481 -6.352919095769932 -3.5622898586568432 28.663843346261235 255 255 255 1.0 16 307 17 192
1482 -1.5049336992462075 -6.825392775909481 33.0433360929905 255 255 255 1.0 16 308 17 193
1483 -3.711396153692776 -3.089678659097957 28.184089507295795 255 255 255 1.0 16 309 17 194
1484 -3.257496668941987 -6.1519136037402635 31.772846913532398 255 255 255 1.0 16 310 17 195 18 80
1485 -1.2013168660148463 -6.441425102713918 32.07798783949344 255 255 255 1.0 16 311 17 196
1486 -7.34603545800109 -3.2615829184985055 28.586755549579042 255 255 255 1.0 16 312 17 197 18 81
1487 0.7438279904557618 -4.42949027898151 27.034479380950486 255 255 255 1.0 16 313 17 198
1488 -3.0577516114495817 -3.739480478247209 26.693095627478836 255 255 255 1.0 16 314 17 199
1489 -7.338792795976295 -3.780894964935758 29.599618299828414 255 255 255 1.0 16 315 17 200
1490 -7.406942368982757 -3.719673996752412 29.46629220227958 255 255 255 1.0 16 316 17 201
1491 -8.484613837034164 -3.6580409906406164 30.521639428898894 255 255 255 1.0 16 317 17 202
1492 -2.17402884628964 -3.832496360590838 26.65178235421622 255 255 255 1.0 16 318 17 203
1493 -8.15273935836853 -3.6128092038317554 30.148834266206094 255 255 255 1.0 16 319 17 204
1494 -4.0018034719914155 2.164661373083189 26.704923465790653 255 255 255 1.0 16 320 17 205
1495 -7.767904673011313 -3.601053260769102 29.736120337114723 255 255 255 1.0 16 321 17 206
1496 -1.7383395710102967 -3.7992414020257916 26.670861692284042 255 255 255 1.0 16 322 17 207
1497 -1.8856016398487134 -3.7027582240077077 26.727046593340567 255 255 255 1.0 16 323 17 208
1498 -6.548986805639302 -4.741859424412881 31.370051519352348 255 255 255 1.0 16 324 17 209
1499 -7.268138490009127 -4.266804236449617 30.041813522860316 255 255 255 1.0 16 325 17 210 18 82
1500 -8.163628945575816 -3.8039031593426342 29.844815826244666 255 255 255 1.0 16 326 17 211
1501 3.816555321314804 -3.412432068286249 30.98459450246534 255 255 255 1.0 16 327 17 212
1502 -0.39463520860611284 -5.957870915263238 30.692012268321072 255 255 255 1.0 16 328 17 213
1503 -1.2658507160227506 -3.6689930420708894 26.797884143083483 255 255 255 1.0 16 329 17 214
1504 -7.223128635267778 -4.43015349803963 30.928516776279523 255 255 255 1.0 16 330 17 215
1505 0.33289799944709025 -4.946271550023448 28.744186469447676 255 255 255 1.0 16 331 17 216
1506 -2.6379362846466026 -3.3243664836172666 25.28944222512908 255 255 255 1.0 17 217 18 83 19 50
1507 -4.245950522486083 -3.400822963507391 25.20905131469813 255 255 255 1.0 17 218 18 84
1508 -3.1159242408725665 -4.266318746116639 27.997569603285772 255 255 255 1.0 17 219 18 85 19 51 20 33 21 19 22 13 23 9 24 8 25 3 26 3
1509 -0.5013459696943336 -8.929404311971815 35.323267581663764 255 255 255 1.0 17 220 18 86 19 52 20 34 21 20 22 14 23 10
1510 -0.41093731965527724 -3.793903597172064 26.96620494570869 255 255 255 1.0 17 221 18 87 19 53 20 35 21 21 22 15
1511 -2.9656880991735397 -4.380216023479849 28.04457276452697 255 255 255 1.0 17 222 18 88 19 54 20 36 21 22 22 16 23 11 24 9 25 4
1512 -4.523411317610389 -3.529817482871633 25.13750912218605 255 255 255 1.0 17 223 18 89
1513 -1.5215542214878999 -4.6785013306791985 27.638507354752434 255 255 255 1.0 17 224 18 90
1514 -1.2694630479063036 -3.827615631685428 26.7156670892673 255 255 255 1.0 17 225 18 91 19 55 20 37
1515 -8.472903201241174 -2.923537477333351 28.677342174804494 255 255 255 1.0 17 226 18 92
1516 -3.8171093758557877 -3.4876965013541477 25.12446195623927 255 255 255 1.0 17 227 18 93
1517 -5.699310984802648 -3.139187119814753 25.751713937889594 255 255 255 1.0 17 228 18 94
1518 -2.291534884437437 -3.121410284934975 25.192139575635988 255 255 255 1.0 17 229 18 95
1519 -6.920865587200429 -3.06368946448438 27.33916614001864 255 255 255 1.0 17 230 18 96 19 56
1520 -8.543655236201225 -2.9215879198363117 28.646800952361293 255 255 255 1.0 17 231 18 97
1521 -0.847786391686372 -4.176218258510475 26.409427455007318 255 255 255 1.0 17 232 18 98
1522 -1.892154908037147 -3.0757093139372333 25.28065521417827 255 255 255 1.0 17 233 17 234 18 99 18 100
1523 -3.442663138404699 -3.2618390261488845 25.14720252446282 255 255 255 1.0 17 235 18 101
1524 -2.634768518790066 -3.2708741170420206 25.304015553392368 255 255 255 1.0 17 236 18 102 19 57
1525 -1.0247455713802514 -4.005158279394073 27.510774562657716 255 255 255 1.0 17 237 18 103 19 58 20 38 21 23 22 17 23 12
1526 -7.426998059784126 -3.1324914012863787 27.512603124027084 255 255 255 1.0 17 238 18 104
1527 -5.271095022551355 -3.658588277442649 25.77820488946866 255 255 255 1.0 17 239 18 105 19 59
1528 -2.7423517948506175 -3.310272438091381 25.284188464291056 255 255 255 1.0 17 240 18 106 18 107 19 60
1529 -1.3343027058934307 -5.002549802909449 27.855682255624103 255 255 255 1.0 17 241 18 108
1530 -6.127601426094607 -3.0998855245407815 26.531568339588247 255 255 255 1.0 17 242 18 109
1531 -4.5935344407389405 -3.313811815975663 25.302227702241236 255 255 255 1.0 17 243 18 110
1532 -1.2207401067357952 -3.201042435127521 25.139867764071038 255 255 255 1.0 17 244 18 111
1533 -2.342817220515507 -3.3845350645754304 25.155215959452217 255 255 255 1.0 17 245 18 112
1534 -3.8779498089959845 -3.202438659665649 25.304428099120976 255 255 255 1.0 17 246 18 113
1535 -0.6629524568226642 -3.5923384596053136 26.186733295478767 255 255 255 1.0 17 247 18 114 19 61 20 39
1536 -2.9159413732536668 -6.521832239760919 30.85330370377717 255 255 255 1.0 17 248 18 115
1537 -1.2797487369355018 -3.1832153360445803 25.182172135518197 255 255 255 1.0 17 249 18 116
1538 -2.7215573045956445 -3.055692810499314 25.25469475737565 255 255 255 1.0 17 250 18 117
1539 -8.640100399099095 -3.263328116739857 28.246715708300428 255 255 255 1.0 17 251 18 118
1540 -8.607968544401931 -3.079909672336003 28.66570373156322 255 255 255 1.0 17 252 18 119
1541 -2.9955107386368356 -3.3118183604469453 25.229812065922513 255 255 255 1.0 17 253 18 120
1542 -7.219997204478601 -3.0872900072815987 27.34747127028329 255 255 255 1.0 17 254 18 121
1543 -2.463667028767341 -3.264594624127677 25.194585994809266 255 255 255 1.0 17 255 18 122
1544 -7.6157402585463485 -4.11532728164347 31.02267359640449 255 255 255 1.0 17 256 18 123 19 62 20 40 21 24 22 18 23 13
1545 -2.713748039369685 -6.13186241225376 30.365284756367767 255 255 255 1.0 17 257 18 124
1546 -5.3466603725150055 -3.708005264659398 27.16816401379096 255 255 255 1.0 17 258 18 125 19 63 20 41
1547 -1.825548450334487 -3.567710917739049 26.699167002040575 255 255 255 1.0 17 259 18 126 19 64 20 42
1548 -7.698980007288352 -3.7882981118145236 29.78001451214668 255 255 255 1.0 17 260 18 127 19 65 20 43 21 25
1549 -1.1880751625464305 -3.2619801651526954 25.053859161043857 255 255 255 1.0 17 261 18 128
1550 -5.804402611531665 -3.62848264228288 28.872589463084964 255 255 255 1.0 17 262 18 129 19 66 20 44 21 26 22 19
1551 -8.73458062021518 -3.301863643003216 28.64658373249661 255 255 255 1.0 17 263 18 130
1552 -5.5320667307103735 -3.5341018325731244 26.04560006876119 255 255 255 1.0 17 264 18 131 19 67
1553 -5.131175396352389 -3.509745167449148 25.274021335923784 255 255 255 1.0 17 265 18 132
1554 -2.9019685455617106 -6.479727982325068 31.012778313489413 255 255 255 1.0 17 266 18 133 19 68
1555 -0.5117142403674642 -4.1679662146734815 26.199795603025414 255 255 255 1.0 17 267 18 134 19 69
1556 -6.686214151482892 -3.3593475951609224 27.290036556107257 255 255 255 1.0 17 268 18 135
1557 -2.8340823642054276 -7.260056084292216 30.90975651074769 255 255 255 1.0 17 269 18 136
1558 -7.237444274127653 -3.019203411144532 27.47033568568693 255 255 255 1.0 17 270 18 137
1559 -7.119506309949883 -3.962314548434333 29.018202074831265 255 255 255 1.0 17 271 18 138
1560 -6.955549918308736 -4.257824778731753 29.31439820000751 255 255 255 1.0 17 272 18 139
1561 -2.28547891894526 -5.657267900513936 29.47444013984221 255 255 255 1.0 17 273 18 140
1562 -2.6358218358858077 -3.087761901560624 25.46939117465924 255 255 255 1.0 17 274 18 141 19 70
1563 0.1953825811738809 -5.311720619751691 29.391782219688235 255 255 255 1.0 17 275 18 142 19 71 20 45
1564 -3.0764582796690014 -3.168017773569499 25.223723234859634 255 255 255 1.0 17 276 18 143
1565 -5.659903765177047 -3.4886001160561153 25.78156604934675 255 255 255 1.0 17 277 18 144
1566 -6.652542567157704 -3.240436334060239 27.002994405556326 255 255 255 1.0 17 278 18 145
1567 -1.5091075107647869 -3.2082773153381776 25.125237937222547 255 255 255 1.0 17 279 18 146
1568 -6.982551336119231 -3.2017077472784585 27.160684663830285 255 255 255 1.0 17 280 18 147
1569 -7.146345875300635 -3.8095758808974987 29.95627450259245 255 255 255 1.0 17 281 18 148 19 72 20 46 21 27 22 20
1570 -4.266674113719198 -3.2724048609523275 25.279263847490945 255 255 255 1.0 17 282 18 149
1571 -8.412946890447936 -2.9241695075956105 28.685448974953314 255 255 255 1.0 17 283 18 150
1572 -6.649188117144465 -1.4527746923401137 29.22987294798688 255 255 255 1.0 17 284 17 285 18 151
1573 -2.9219335550768206 -7.003602650945475 30.885513942900015 255 255 255 1.0 17 286 18 152
1574 -4.053083440200348 -3.9908347562614894 26.16748559494959 255 255 255 1.0 17 287 18 153 19 73 20 47
1575 -8.27779156182379 -3.4445315377419417 28.365045002198492 255 255 255 1.0 17 288 18 154
1576 -6.645261184375236 -3.05190765319772 27.00752920999481 255 255 255 1.0 17 289 18 155
1577 -6.2996841889958715 -3.1102696359003663 26.808447925219163 255 255 255 1.0 17 290 18 156
1578 -5.251988878302528 -3.577778824123092 25.530675375094667 255 255 255 1.0 17 291 18 157 19 74
1579 -1.738767979521854 -2.603971861278814 27.15322680354429 255 255 255 1.0 17 292 17 293 18 158
1580 -8.580486892401375 -2.8782435908458193 29.734492456959757 255 255 255 1.0 17 294 18 159
1581 -4.82328956552429 -4.006998453437548 28.740862336077587 255 255 255 1.0 17 295 18 160 19 75 20 48 21 28 22 21 23 14
1582 -7.89423914156227 -3.2249063457160525 27.9198465349987 255 255 255 1.0 17 296 18 161
1583 -6.785830563391135 -3.073449848089772 27.307438241514383 255 255 255 1.0 17 297 18 162 19 76
1584 -7.538775464115942 -3.0584329697930923 27.688482687197453 255 255 255 1.0 17 298 18 163
1585 -5.569275219162931 -3.879296483353269 29.95971832793761 255 255 255 1.0 17 299 18 164 19 77 20 49 21 29 22 22 23 15 24 10
1586 -4.269516152005938 -4.239050080762475 26.643553309030278 255 255 255 1.0 17 300 18 165 19 78 20 50 21 30
1587 -1.079834165880024 -3.5096277031725194 26.83421098905167 255 255 255 1.0 17 301 18 166 19 79 20 51 21 31
1588 -6.385244221956897 -3.1612918957092684 26.610802155921398 255 255 255 1.0 17 302 18 167
1589 -7.8487488525597096 -3.1711527432856004 27.81819698824715 255 255 255 1.0 17 303 18 168
1590 -3.7042849411384235 -5.800845391124685 30.578599091435187 255 255 255 1.0 17 304 18 169
1591 -6.799373234659559 -2.9797539278602727 26.786315932835368 255 255 255 1.0 17 305 18 170
1592 -6.171258576661388 -3.3436381471354397 26.278845895288075 255 255 255 1.0 17 306 18 171
1593 -3.922521066638271 -3.8161249885577084 26.17907057704719 255 255 255 1.0 17 307 18 172 19 80 20 52
1594 -6.697522672714467 -3.2383290339693214 26.821728841033337 255 255 255 1.0 17 308 18 173
1595 -1.2175919442254568 -4.601625260913524 27.19036910153125 255 255 255 1.0 17 309 18 174
1596 -8.322914935659924 -3.6646344759110283 30.31056894677411 255 255 255 1.0 17 310 18 175 19 81 20 53 21 32
1597 -1.8278445236306518 -5.152945767090021 28.688792252428463 255 255 255 1.0 17 311 18 176
1598 -8.465538136210956 -3.3983917376332515 28.528125929799995 255 255 255 1.0 17 312 18 177 19 82
1599 -2.277700025157737 -3.5557782191071414 26.201926454826197 255 255 255 1.0 17 313 18 178 19 83 20 54
1600 -7.51711291702739 -3.1366395058877266 27.620033047848942 255 255 255 1.0 17 314 18 179
1601 -3.907475412875039 -3.340881270919451 25.17558428839878 255 255 255 1.0 17 315 18 180
1602 -2.974857483057508 -6.6128960041109295 31.050150326218 255 255 255 1.0 17 316 18 181
1603 -1.0108335460952067 -5.948937192677665 30.472148072886924 255 255 255 1.0 17 317 18 182 19 84 20 55
1604 -6.516314121045687 -3.52767468978461 28.248373291009408 255 255 255 1.0 17 318 18 183 19 85 20 56
1605 -7.724941600333551 -3.8538881671737126 29.02011280926137 255 255 255 1.0 17 319 18 184
1606 -1.0726066193623272 -3.1867461270309168 25.368108486280015 255 255 255 1.0 17 320 18 185 19 86
1607 -6.738790256824153 -3.0631039174336516 27.146564482945607 255 255 255 1.0 17 321 18 186
1608 -3.239076172189752 -6.0030659794180785 30.740125598251666 255 255 255 1.0 17 322 18 187
1609 -8.611979315422973 -3.734564963724849 28.53650979138394 255 255 255 1.0 17 323 18 188
1610 -8.968609728199635 -2.941923705280218 32.83386564335505 255 255 255 1.0 17 324 18 189
1611 -4.951986458142821 -3.5968632322115988 25.167016207015042 255 255 255 1.0 17 325 18 190
1612 -3.780312205716369 -3.4242618198430956 25.150824806018107 255 255 255 1.0 17 326 18 191
1613 -2.698096553170887 -5.906962609597601 30.24368311898987 255 255 255 1.0 17 327 18 192
1614 -7.0855561671440634 -3.066167125391032 27.571941416825272 255 255 255 1.0 17 328 18 193 19 87
1615 -8.093403446838526 -3.8732887729566285 28.872945399694007 255 255 255 1.0 17 329 18 194
1616 -5.884325380855807 -3.2316061927818067 26.073136854739527 255 255 255 1.0 17 330 18 195
1617 -3.087523349480954 -3.441780747640605 25.36781953279126 255 255 255 1.0 17 331 18 196 19 88
1618 -0.46824479310022743 -4.044175944422449 26.006420241914473 255 255 255 1.0 17 332 18 197 19 89
1619 -8.896644005473963 -2.916941510738777 32.134455322258646 255 255 255 1.0 17 333 18 198
1620 -8.564515172089399 -3.5587357682952274 28.576920288655998 255 255 255 1.0 17 334 18 199
1621 -7.4235546524726725 -3.1015526332491534 27.759695758038102 255 255 255 1.0 17 335 18 200 19 90
1622 -3.4070065466357446 -5.890570047873897 30.632143395152696 255 255 255 1.0 17 336 18 201
1623 -6.100789393310312 -2.343088610506122 29.246530391554316 255 255 255 1.0 17 337 18 202
1624 -3.3936314164766643 -3.3466309615364382 25.184919918744292 255 255 255 1.0 17 338 18 203
1625 -8.522179526618958 -3.3771224052158786 28.3185831864423 255 255 255 1.0 17 339 18 204
1626 -5.681798673047504 -3.8881679946514005 29.249500173562648 255 255 255 1.0 17 340 18 205 19 91 20 57 21 33 22 23 23 16 24 11 25 5 26 4 27 0 28 0 29 0 30 0 31 0
1627 -7.170736139976267 -4.03614392691083 29.064276520056136 255 255 255 1.0 17 341 18 206
1628 -1.2805802617983173 -3.1030000227489203 25.042447536117407 255 255 255 1.0 17 342 18 207
1629 -6.875282423096278 -4.271896207189276 29.216907799871525 255 255 255 1.0 17 343 18 208
1630 -8.487806820518657 -3.4373365923052965 28.36584117775714 255 255 255 1.0 17 344 18 209
1631 -5.9125331811083885 -3.062710292011052 26.54337776751148 255 255 255 1.0 17 345 18 210
1632 -6.55086856729888 -4.441856162537188 29.477207571800005 255 255 255 1.0 17 346 18 211
1633 -5.231930866936903 -5.03377601413543 29.93419254853987 255 255 255 1.0 17 347 18 212
1634 -7.281708056063906 -3.173700942899536 27.440411173720847 255 255 255 1.0 17 348 18 213
1635 -4.642725848732133 -3.658499821959698 25.105460214820724 255 255 255 1.0 17 349 18 214
1636 -3.920734774941628 -3.3043859262521966 25.16956741855251 255 255 255 1.0 17 350 18 215
1637 -6.097902306528939 -3.212094473373954 26.46294152937413 255 255 255 1.0 17 351 18 216
1638 -3.0893446166640146 -3.236543236126669 25.21647112139656 255 255 255 1.0 17 352 18 217
1639 -8.435014391342712 -3.7582953715735528 28.801664783949608 255 255 255 1.0 17 353 18 218 19 92
1640 -6.910816409762646 -4.314019833840618 29.41009962734228 255 255 255 1.0 17 354 18 219 19 93
1641 -4.501051530985767 -3.617371393615116 25.22204657186863 255 255 255 1.0 17 355 18 220
1642 -1.2352935043615285 -3.2568759531469205 25.09475531696819 255 255 255 1.0 17 356 18 221
1643 -7.243639034466579 -3.292727173568198 27.498022382967 255 255 255 1.0 17 357 18 222 19 94
1644 -2.876548035351035 -6.515335732450056 30.82858549952142 255 255 255 1.0 17 358 18 223
1645 -8.866993198371748 -2.90602458782774 31.827508974570918 255 255 255 1.0 17 359 18 224
1646 -3.4933255266718577 -3.3004521160522464 25.255426556572218 255 255 255 1.0 17 360 18 225
1647 -4.95038531413324 -3.5855903015370956 25.329094997782605 255 255 255 1.0 17 361 18 226 19 95
1648 -1.5751630083827504 -3.496002004889374 26.86900703959983 255 255 255 1.0 17 362 18 227 19 96 20 58
1649 -7.056782886241602 -3.3137317512510416 27.51964046854452 255 255 255 1.0 17 363 18 228 19 97
1650 -6.5989513602838805 -3.1863702071901403 26.94532344236512 255 255 255 1.0 17 364 18 229 19 98
1651 -0.49796987417627453 -4.114825192837218 25.67773946224955 255 255 255 1.0 17 365 18 230
1652 -1.2657442537113885 -4.561248798743246 27.235595250970267 255 255 255 1.0 17 366 18 231
1653 -1.3045238931312206 -3.328305544598734 25.044999382571195 255 255 255 1.0 17 367 18 232
1654 -8.016468135384986 -3.3988298944749733 30.037133807801396 255 255 255 1.0 18 233 19 99 20 59
1655 -0.8993788359665418 -3.8215750742928005 26.648338664081493 255 255 255 1.0 18 234 19 100 20 60 21 34
1656 -5.895929568125032 -3.2576227606075356 26.522314732793877 255 255 255 1.0 18 235 19 101
1657 -3.9978778825864474 -4.26563271895256 26.921791593848063 255 255 255 1.0 18 236 19 102 20 61 21 35 22 24
1658 -1.8215602646765365 -3.5304134769387883 26.261549723642418 255 255 255 1.0 18 237 19 103 20 62
1659 -8.432101952752145 -3.260493290257135 28.880450494996442 255 255 255 1.0 18 238 19 104
1660 -2.801235166562365 -7.299002374001258 31.551689185250055 255 255 255 1.0 18 239 19 105
1661 -6.756505822926892 -3.245839694683382 29.212738149541337 255 255 255 1.0 18 240 19 106
1662 -2.7185681929252414 -7.1554944744538815 31.44598661543919 255 255 255 1.0 18 241 19 107
1663 -3.8059509527820774 -3.9942291999606914 26.83523336622553 255 255 255 1.0 18 242 19 108 20 63 21 36 22 25
1664 -3.213655013882104 -3.834671566710499 26.229314817541006 255 255 255 1.0 18 243 19 109 20 64
1665 -1.697035000534271 -3.173060220618843 25.48238316317258 255 255 255 1.0 18 244 19 110
1666 -3.663748208252591 -3.4935589504769005 25.426316686448576 255 255 255 1.0 18 245 19 111
1667 -7.692216262793834 -3.2368611112387677 28.0950872155171 255 255 255 1.0 18 246 19 112
1668 -7.999534792733192 -3.7954257756702883 31.374250479839297 255 255 255 1.0 18 247 19 113 20 65 21 37 22 26
1669 -1.9801826387057546 -3.178880405878319 25.459288692480282 255 255 255 1.0 18 248 19 114
1670 -1.8349290325485947 -3.7131717427405984 26.249374126211187 255 255 255 1.0 18 249 19 115 20 66
1671 -2.435069158220582 -4.208742030390878 27.4561476181931 255 255 255 1.0 18 250 18 251 19 116 20 67 21 38 22 27 23 17
1672 -2.2247257126033744 -4.052786986002154 27.35854378508686 255 255 255 1.0 18 252 19 117 20 68 21 39 22 28 23 18
1673 -2.6141307939524654 -6.898831362696486 31.315978000293594 255 255 255 1.0 18 253 19 118
1674 -7.108377196276571 -3.938780349236519 30.683446705806418 255 255 255 1.0 18 254 19 119 20 69 21 40 22 29 23 19
1675 -6.56108208181596 -2.2641589535937645 32.206787392776704 255 255 255 1.0 18 255 19 120
1676 -6.3039867164655465 -3.1738330819812006 26.94392850545775 255 255 255 1.0 18 256 19 121
1677 -4.167195687032783 -2.1797324921805323 27.41307442860979 255 255 255 1.0 18 257 19 122
1678 -2.9483883868084577 -3.378047291190462 25.382970646921898 255 255 255 1.0 18 258 19 123
1679 -6.078236632528235 -3.3889328401748697 28.01954798481146 255 255 255 1.0 18 259 19 124 20 70
1680 -1.064199577839592 -3.6626466990628703 27.08777093585012 255 255 255 1.0 18 260 19 125 20 71 21 41
1681 -3.7185406830219865 -3.9241723330718203 26.673405093051166 255 255 255 1.0 18 261 19 126 20 72
1682 -3.292509217469679 -3.497864595549277 25.36183972756553 255 255 255 1.0 18 262 19 127
1683 -7.814169031284763 -3.9435611282532217 30.84944984110159 255 255 255 1.0 18 263 19 128 20 73 21 42 21 43 22 30
1684 -6.357406043614912 -3.459517005991649 28.276852182711032 255 255 255 1.0 18 264 19 129 20 74
1685 -3.2831516517045896 -3.2029109200515897 25.520508956432046 255 255 255 1.0 18 265 19 130
1686 -2.2633147000549396 -3.293467099337159 25.412895607514606 255 255 255 1.0 18 266 19 131
1687 -1.3423105499878334 -3.441964002750644 25.390974478670117 255 255 255 1.0 18 267 19 132
1688 -1.7261125034616982 -3.526801872830767 26.239128789099848 255 255 255 1.0 18 268 19 133 20 75
1689 -6.960766231984817 -3.086113964019803 27.42609858961796 255 255 255 1.0 18 269 19 134
1690 -2.637435254487001 -3.1873005690635785 25.480597193084993 255 255 255 1.0 18 270 19 135
1691 -5.402444506128961 -3.378579771733702 26.081259512180768 255 255 255 1.0 18 271 19 136
1692 -2.4884147667054957 -3.2499396987261897 25.503131210785586 255 255 255 1.0 18 272 19 137
1693 -1.4604812807774012 -3.4336132052143187 25.493318236076306 255 255 255 1.0 18 273 19 138
1694 -2.5788416320464997 -3.0979702168968872 25.58695555369995 255 255 255 1.0 18 274 19 139
1695 -4.855988452946621 -3.848320904871985 27.8540697693739 255 255 255 1.0 18 275 19 140 20 76 21 44 22 31
1696 -3.4933948880032073 -3.885224236267079 26.164348572388676 255 255 255 1.0 18 276 19 141 20 77
1697 -8.451467903370052 1.808777035681564 33.33784048668339 255 255 255 1.0 18 277 19 142
1698 -7.963658564664533 -3.7504972076578653 29.64242824174511 255 255 255 1.0 18 278 19 143 20 78
1699 -6.6153329794137985 -3.2201324845896466 27.14506077753422 255 255 255 1.0 18 279 19 144
1700 -5.194805227695381 -3.636043624119681 25.72333407390634 255 255 255 1.0 18 280 19 145
1701 -5.247619888712578 -3.626532766199255 25.77694485056883 255 255 255 1.0 18 281 19 146
1702 -2.0011136932546965 -6.996758531536354 33.17560481318763 255 255 255 1.0 18 282 19 147 20 79 21 45
1703 -4.31899811695636 -5.48279098214203 30.544608126193292 255 255 255 1.0 18 283 19 148
1704 -6.331132966902334 -4.73083057864218 31.18760611860887 255 255 255 1.0 18 284 19 149 20 80
1705 -2.6524153374474975 -7.1355991763966555 31.556251472302275 255 255 255 1.0 18 285 19 150
1706 -8.394443231007285 -3.351382205403062 28.64833401053874 255 255 255 1.0 18 286 19 151
1707 -4.069100615361663 -3.529523229660852 25.462365217688895 255 255 255 1.0 18 287 19 152
1708 -5.676388344054176 -3.323008483409519 26.21016420688471 255 255 255 1.0 18 288 19 153
1709 -4.893464854937868 -3.681565387487072 25.443454894747983 255 255 255 1.0 18 289 19 154
1710 -1.7644378151368123 -5.592836932966321 29.388646047282904 255 255 255 1.0 18 290 19 155
1711 -8.090446834430027 -3.218758570521955 28.4508783663292 255 255 255 1.0 18 291 19 156
1712 -8.133820034387492 -3.350630542881747 28.380891930454258 255 255 255 1.0 18 292 19 157
1713 -3.2685942669869106 -3.312859649072396 25.48756159533902 255 255 255 1.0 18 293 19 158
1714 -5.886712418446694 -4.704889078845679 29.936058978078144 255 255 255 1.0 18 294 19 159
1715 -4.084182581081747 -3.515861702187485 25.513630768794904 255 255 255 1.0 18 295 19 160
1716 -7.792233500199335 -3.178546497262837 28.1937944554673 255 255 255 1.0 18 296 19 161
1717 -4.474681757328997 -4.2500828278217 26.401108797744236 255 255 255 1.0 18 297 19 162 20 81
1718 -7.186687070604124 -3.1332472149577395 27.745846218050737 255 255 255 1.0 18 298 19 163
1719 -8.306100532909017 -3.3620791219808828 32.86761153347206 255 255 255 1.0 18 299 19 164 20 82 21 46
1720 -2.8493156863889118 -3.245523810983899 25.351942343124943 255 255 255 1.0 18 300 19 165
1721 -1.3862372384124457 -3.3652653357190867 26.36114275124126 255 255 255 1.0 18 301 19 166 20 83
1722 -1.0698772316760143 -3.701676817115384 26.71599494701366 255 255 255 1.0 18 302 19 167 20 84
1723 -4.777799104699296 -3.342681352005758 25.91852553941756 255 255 255 1.0 18 303 19 168
1724 -2.912428125762498 -3.337476233481867 25.456400491671776 255 255 255 1.0 18 304 19 169
1725 -8.1077864217159 -3.45113179840987 28.400595853893066 255 255 255 1.0 18 305 19 170
1726 -5.531979205861607 -3.5189667954136197 27.49976848499351 255 255 255 1.0 18 306 19 171 20 85
1727 -4.024850624692259 -3.5034627696514997 25.509557908539705 255 255 255 1.0 18 307 19 172
1728 -6.185274785123727 -3.468427746405643 28.05929167597319 255 255 255 1.0 18 308 19 173 20 86
1729 -3.189247403508662 -2.2227145811945057 28.81706654083674 255 255 255 1.0 18 309 19 174 20 87 21 47
1730 -7.819217921951609 -3.2139851945852613 28.24169308088321 255 255 255 1.0 18 310 19 175
1731 -4.498320712265693 -3.506019456777332 25.510331700270203 255 255 255 1.0 18 311 19 176
1732 -3.589473719623278 -5.922007432888948 30.89278120124412 255 255 255 1.0 18 312 19 177
1733 -6.9443521771086285 -3.2985368567717464 27.248670478556694 255 255 255 1.0 18 313 19 178
1734 -1.4405283052296758 -5.2496812804743564 28.71918141131203 255 255 255 1.0 18 314 19 179
1735 -8.507375616956342 2.4012178538616014 32.61720077663551 255 255 255 1.0 18 315 19 180
1736 -6.676748611138064 -3.199267849009949 27.20349448029654 255 255 255 1.0 18 316 19 181
1737 -0.646754812142494 -4.342470709011277 26.851133743790047 255 255 255 1.0 18 317 19 182
1738 -3.3450209006211655 -3.3449214110699903 25.45377472942839 255 255 255 1.0 18 318 19 183
1739 -6.529733191926163 -3.4562923922800026 27.547972601781936 255 255 255 1.0 18 319 19 184
1740 -5.9812424765850745 -3.3056861158225725 26.59228676439774 255 255 255 1.0 18 320 19 185
1741 -6.481267537646117 -3.8126093004937474 29.404939094536104 255 255 255 1.0 18 321 19 186 20 88 21 48 22 32
1742 -6.813856591406328 -3.452691602145465 28.616125511117193 255 255 255 1.0 18 322 19 187 20 89
1743 -4.044250332126577 -4.296372619594062 26.983268032885015 255 255 255 1.0 18 323 19 188 20 90 21 49 22 33
1744 -5.692458523846477 -4.799251327880098 30.06620798777719 255 255 255 1.0 18 324 19 189
1745 -7.061298049211986 2.041906374292399 27.580101813509945 255 255 255 1.0 18 325 19 190
1746 -6.7761880474095495 -3.366570270222294 28.654420267347902 255 255 255 1.0 18 326 19 191 20 91
1747 -0.4973025315446367 -5.560072519140746 29.63745977441905 255 255 255 1.0 18 327 19 192 20 92
1748 -5.428424922649492 -3.401283030479489 26.144206051330396 255 255 255 1.0 18 328 19 193
1749 -4.021795543507783 -2.1314521898822676 27.26979059997671 255 255 255 1.0 18 329 19 194
1750 -7.759519369772746 -3.190603959365785 28.175014114937365 255 255 255 1.0 18 330 19 195
1751 -4.820721414967518 -5.2525456117222555 30.428631019206023 255 255 255 1.0 18 331 19 196
1752 -8.353608830457476 2.397065084243658 29.565786626906167 255 255 255 1.0 18 332 19 197
1753 -2.9962340635624196 -3.328184586194898 25.38508455015376 255 255 255 1.0 18 333 19 198
1754 -5.2153427574309985 -3.5293956547353247 25.94513316909293 255 255 255 1.0 18 334 19 199
1755 -0.4938738709885605 -5.459089782227785 29.603628219135167 255 255 255 1.0 18 335 19 200 20 93
1756 -2.968077366938052 -3.313329263544954 25.41389955704216 255 255 255 1.0 18 336 19 201
1757 -2.7566378732315067 -2.772701603386958 31.07257389552944 255 255 255 1.0 18 337 19 202
1758 -6.287250543963345 -3.220635746233828 26.943936101288028 255 255 255 1.0 18 338 19 203
1759 -1.2529802692076233 -3.46330162161099 25.388131422481358 255 255 255 1.0 18 339 19 204
1760 -0.11201740775672747 -2.2314346817345614 28.289457669550153 255 255 255 1.0 18 340 19 205 20 94
1761 -6.209680108134038 -3.177346765382204 26.89693657046276 255 255 255 1.0 18 341 19 206
1762 -7.953790327335959 -3.964583560570768 29.171327419806886 255 255 255 1.0 18 342 19 207
1763 -6.620356600227163 -3.1986906394353674 27.15851780802967 255 255 255 1.0 18 343 19 208
1764 -2.1591329654931015 -3.219960578945634 25.53533832907781 255 255 255 1.0 18 344 19 209
1765 -7.234273882659839 -3.2507434655324743 27.597154724362472 255 255 255 1.0 18 345 19 210
1766 -7.491835465365162 -3.220187731839443 28.020593095391238 255 255 255 1.0 18 346 19 211
1767 0.26526533698034327 -3.780673593073647 27.25298605894034 255 255 255 1.0 19 212 20 95 21 50 22 34
1768 -7.9761240297998866 -3.6780436998222337 31.03931220277806 255 255 255 1.0 19 213 20 96
1769 -0.5742259510920632 -4.069797596027527 31.961837501597984 255 255 255 1.0 19 214 20 97
1770 -2.499727356421599 -3.819940501506208 27.079432345769224 255 255 255 1.0 19 215 20 98
1771 -0.27008138312480606 -3.7129935889632284 27.19930621670772 255 255 255 1.0 19 216 20 99
1772 -2.9949146881775865 -3.853084320318355 27.15839976914709 255 255 255 1.0 19 217 20 100 21 51
1773 -6.057731679115391 2.825441279035782 29.738263257687137 255 255 255 1.0 19 218 20 101 21 52
1774 -1.7381140963400996 -3.7714879483343484 27.206878371035216 255 255 255 1.0 19 219 20 102 21 53
1775 0.23642980522473478 -3.8216422012632485 27.099624485714134 255 255 255 1.0 19 220 20 103 21 54
1776 -5.360421259225157 -3.715679810186129 28.661213320449903 255 255 255 1.0 19 221 20 104
1777 -1.682109208607789 -3.639283304050752 27.277636795562316 255 255 255 1.0 19 222 20 105
1778 3.2709261398219773 -3.0612928416556344 34.70852351761596 255 255 255 1.0 19 223 20 106
1779 -2.8080234811783433 -3.8629853869154265 27.049382175982313 255 255 255 1.0 19 224 20 107
1780 -1.772345972284702 -4.076231951850656 27.35804743789155 255 255 255 1.0 19 225 20 108 21 55 22 35 23 20
1781 -2.8637314090322823 -2.492730720662895 29.242344952397165 255 255 255 1.0 19 226 20 109 21 56
1782 -4.196306892095452 -3.672592073495822 28.17044977257896 255 255 255 1.0 19 227 20 110
1783 0.656147896255387 2.7461742536549663 28.765043685465113 255 255 255 1.0 19 228 20 111 21 57
1784 -3.184086818241036 -3.9858463467889296 27.11763706642322 255 255 255 1.0 19 229 20 112 21 58 22 36
1785 -4.6011644556051134 -4.033136183358044 27.63439190627036 255 255 255 1.0 19 230 20 113 21 59
1786 -4.7760952133988654 -3.7569309271088285 28.027829161390535 255 255 255 1.0 19 231 20 114
1787 -1.7022489213810132 -3.940722913805336 27.064645359374254 255 255 255 1.0 19 232 20 115 21 60
1788 -6.4089608638575255 -3.634347993436285 29.65877087490002 255 255 255 1.0 19 233 20 116
1789 -1.689560815985797 -3.972218793717188 27.415270951542006 255 255 255 1.0 19 234 20 117 21 61 22 37 23 21
1790 -3.718965543367052 -4.198654158629641 27.398663370757063 255 255 255 1.0 19 235 20 118 21 62 22 38 23 22
1791 -1.6638003207064118 -3.6427127887613553 27.18894342900403 255 255 255 1.0 19 236 20 119 21 63
1792 0.585465493544794 2.560828457054163 28.889850991098395 255 255 255 1.0 19 237 20 120
1793 -2.6330169052836823 1.5368550501829632 26.997238186861967 255 255 255 1.0 19 238 20 121
1794 -7.1082278962828465 -3.732208098792907 30.262616561147613 255 255 255 1.0 19 239 20 122
1795 -5.855470065803317 2.61977693384169 28.97334408027516 255 255 255 1.0 19 240 20 123 21 64
1796 -2.9651129559362137 -4.066778507299051 26.91438555820093 255 255 255 1.0 19 241 20 124
1797 -5.464527109393534 2.9326676050617415 28.171182715582614 255 255 255 1.0 19 242 20 125
1798 -2.880586941610579 -3.9799364463133378 27.046328719963448 255 255 255 1.0 19 243 20 126
1799 1.078731576438837 -5.099740441510927 28.773141317946195 255 255 255 1.0 19 244 20 127
1800 -5.115389890644019 2.7628041724195946 28.871703979375816 255 255 255 1.0 19 245 20 128 21 65
1801 -5.301690029855651 -5.324578643115324 32.613932425166965 255 255 255 1.0 19 246 20 129 21 66 22 39 23 23
1802 -5.503795916079844 -3.8084599616168164 28.68001060853169 255 255 255 1.0 19 247 20 130 21 67
1803 -4.482695722454142 -3.999426961334946 27.514043723087696 255 255 255 1.0 19 248 20 131 21 68
1804 -0.8670622959778398 -7.856475332751801 34.41789650675437 255 255 255 1.0 19 249 20 132 21 69 22 40
1805 -0.09853900713480655 -3.84737408065143 27.046417593273873 255 255 255 1.0 19 250 20 133 21 70 22 41
1806 -5.792107933212947 -3.9218599824485936 30.24821712540865 255 255 255 1.0 19 251 20 134 21 71 22 42 23 24 24 12
1807 -3.776000731556137 -3.7136076551824475 27.19590451431204 255 255 255 1.0 19 252 20 135
1808 -8.235613201835829 -3.5747014552009087 35.952849814963905 255 255 255 1.0 19 253 20 136
1809 -5.7358667779455486 -5.142208901148724 32.068329659241115 255 255 255 1.0 19 254 20 137
1810 -2.639173961695936 -3.999531190484727 26.9913334557192 255 255 255 1.0 19 255 20 138
1811 -3.287754886446137 -4.145375588170632 27.022887152375223 255 255 255 1.0 19 256 20 139
1812 -5.0822734189810195 -4.156752709817349 30.771308756486235 255 255 255 1.0 19 257 20 140 21 72 22 43 23 25 24 13 25 6
1813 1.0277855733313823 -5.178414632172083 28.968634792287475 255 255 255 1.0 19 258 20 141 21 73
1814 -7.660203363184627 -3.876280474585898 30.554322788504916 255 255 255 1.0 19 259 20 142
1815 -1.927242124399573 -3.7341130706218864 27.103693416926028 255 255 255 1.0 19 260 20 143 21 74
1816 -6.341329397953804 2.482883623174555 29.50236196846708 255 255 255 1.0 19 261 20 144
1817 -7.792868327601811 2.7780876731834256 36.38442311766999 255 255 255 1.0 19 262 20 145
1818 -7.735193336422047 -3.9823737193761986 30.64306734354065 255 255 255 1.0 19 263 20 146
1819 -1.9592113691278963 -3.923693223026223 27.16268714506171 255 255 255 1.0 19 264 20 147 21 75 22 44
1820 -5.315681019002901 2.7797951560501106 29.079070406572257 255 255 255 1.0 19 265 20 148 21 76
1821 -3.9657093613582726 -4.026701660457338 27.32094530743379 255 255 255 1.0 19 266 20 149 21 77
1822 -7.719450074204562 2.3901439240051174 31.906934626783666 255 255 255 1.0 19 267 20 150
1823 -7.0355881924427095 -3.854324749690507 29.956368197343757 255 255 255 1.0 19 268 20 151 21 78
1824 -7.711453912934286 2.216863701374885 31.94730312442834 255 255 255 1.0 19 269 20 152
1825 0.9506368658628049 2.7346342336097424 28.0787801959135 255 255 255 1.0 19 270 20 153
1826 -7.787790995380852 -3.4606625478832536 31.13025886024146 255 255 255 1.0 19 271 20 154
1827 -6.498708626624833 -3.6104808050747033 29.708762093608104 255 255 255 1.0 19 272 20 155
1828 -4.56938848748386 -3.9105304457532775 27.747313208892756 255 255 255 1.0 19 273 20 156
1829 1.3165911450992842 -4.900096190240586 28.46529379111047 255 255 255 1.0 19 274 20 157 21 79
1830 -4.219253450582231 -3.990682171726061 27.437441650901253 255 255 255 1.0 19 275 20 158
1831 -5.776352120472303 -3.6179950548875266 29.05353460604012 255 255 255 1.0 19 276 20 159
1832 -3.3118308102366276 2.4011582199139014 26.90928165488306 255 255 255 1.0 19 277 20 160
1833 -5.5497743078919655 2.760958591681046 29.267140719124313 255 255 255 1.0 19 278 20 161
1834 -3.0093623740802813 -3.928094201077468 27.09881282934777 255 255 255 1.0 19 279 20 162 21 80
1835 -6.380220492009386 2.585053822147925 29.427935052948534 255 255 255 1.0 19 280 20 163
1836 -4.90230252299499 -4.076685227300787 30.115999914109175 255 255 255 1.0 19 281 20 164 21 81 22 45 23 26 24 14 25 7
1837 0.7853956523255777 2.2074009956934426 29.030509924704745 255 255 255 1.0 19 282 20 165
1838 -5.868258345173355 -4.071961574403513 30.948890265737226 255 255 255 1.0 19 283 20 166 21 82 22 46 23 27 24 15 25 8
1839 0.7403927468466993 -5.310535585787451 29.56968992469059 255 255 255 1.0 19 284 20 167 21 83
1840 -5.128733535154928 -3.7048694215051463 28.40690404716954 255 255 255 1.0 19 285 20 168
1841 -7.9391463301907494 -3.823384917884288 30.895207018639066 255 255 255 1.0 19 286 20 169
1842 -7.491788598036672 -4.462275429007384 31.881175031357063 255 255 255 1.0 19 287 20 170 21 84 22 47 23 28 24 16
1843 -6.030086685324708 -3.7373366381885784 29.232050593078714 255 255 255 1.0 19 288 20 171
1844 -6.722779610470993 -3.753029238730095 29.782372326740802 255 255 255 1.0 19 289 20 172
1845 -6.27098272218219 2.5419430824269207 29.420750929605088 255 255 255 1.0 19 290 20 173
1846 -3.003042066346993 -3.9598042817016634 27.10092475765672 255 255 255 1.0 19 291 20 174
1847 -1.6738712345795468 -3.995164013731377 27.084788127039285 255 255 255 1.0 19 292 20 175
1848 -7.752718158744086 2.3599832979579505 30.732742703296182 255 255 255 1.0 19 293 20 176
1849 -7.69401113505569 -3.646499070437209 32.24173246809263 255 255 255 1.0 19 294 20 177
1850 0.6793511681568933 -2.505864585468648 29.495562041553367 255 255 255 1.0 19 295 20 178
1851 -2.9952328443019836 -2.458154748451471 29.512224068363615 255 255 255 1.0 19 296 20 179 21 85
1852 -5.385478669061212 -3.942945322007759 29.141058286468937 255 255 255 1.0 19 297 20 180
1853 -7.861967494955012 -4.000014258154803 30.769829456494914 255 255 255 1.0 19 298 20 181
1854 -5.816234477429894 2.5592999655198767 29.082558411002587 255 255 255 1.0 19 299 20 182
1855 -2.894291698049111 -4.110284422425432 27.071488851975726 255 255 255 1.0 19 300 20 183 21 86 22 48
1856 -6.162667727678706 -3.811447309599866 30.01736353706109 255 255 255 1.0 19 301 20 184 21 87 22 49 23 29
1857 -6.500030793004116 2.286078026962156 29.578195610941584 255 255 255 1.0 19 302 20 185 21 88
1858 0.11331203955688794 -6.165790024622145 31.192203597975034 255 255 255 1.0 19 303 20 186
1859 -1.0463657495684864 -8.39893151858852 34.22905440888291 255 255 255 1.0 19 304 20 187
1860 0.7284087542803925 2.5290722034913244 28.938103090623628 255 255 255 1.0 19 305 20 188 21 89 22 50
1861 -2.675289731000006 -4.043910237842172 27.132641703502866 255 255 255 1.0 19 306 20 189
1862 -6.381050826850961 2.5562324933649565 29.585488448484625 255 255 255 1.0 19 307 20 190
1863 -7.498555764755595 -4.402285833899093 31.143029031920154 255 255 255 1.0 19 308 20 191
1864 -3.352236914921528 -4.028487309524787 27.0764175731609 255 255 255 1.0 19 309 20 192
1865 1.091980315307908 -2.7048269856128075 29.305201214487592 255 255 255 1.0 19 310 20 193
1866 0.22775417958445413 -3.666629326417646 27.333490384155766 255 255 255 1.0 19 311 20 194 21 90 22 51
1867 1.1661408613755357 -4.791772417629304 28.339304316827388 255 255 255 1.0 19 312 20 195
1868 -7.328891218713509 -3.789632888554743 32.345010432711504 255 255 255 1.0 19 313 20 196 21 91 22 52 23 30 24 17 25 9 26 5
1869 -4.301821510478472 -4.163783002582426 27.344595476126354 255 255 255 1.0 19 314 20 197
1870 -1.1821726495771987 -7.546097296023165 34.02697745993813 255 255 255 1.0 19 315 20 198
1871 -5.531869968487854 -3.818244293392906 28.602267137062725 255 255 255 1.0 19 316 20 199
1872 0.09246584285005612 -3.6335036143728696 27.070104531299084 255 255 255 1.0 19 317 20 200
1873 -7.729193025162165 2.429826344960731 31.770297304376925 255 255 255 1.0 19 318 20 201 21 92
1874 -4.2086226918088325 -4.0280143448747046 27.42255951207718 255 255 255 1.0 19 319 20 202
1875 -7.827740057744666 -4.41154151928326 31.037240198336875 255 255 255 1.0 19 320 20 203
1876 -5.808665271132026 -5.0186956662972 32.00738976979215 255 255 255 1.0 19 321 20 204
1877 -6.329776115102206 2.519988516811903 29.406405631719835 255 255 255 1.0 19 322 20 205 21 93
1878 -2.5094313014571474 -3.7886593614016086 27.263441624381358 255 255 255 1.0 19 323 20 206
